ply                 
format ascii 1.0    
element vertex 293
property float x    
property float y    
property float z    
property uchar red  
property uchar green
property uchar blue 
end_header          
0.121196 -0.124985 2.00154 74 59 52 
0.203531 0.0606584 2.05689 231 228 209 
-0.0207069 0.237224 1.83958 225 225 217 
0.00870344 -0.111292 1.94373 74 65 50 
0.232274 -0.135265 2.38776 250 234 200 
-0.0345451 -0.365513 2.13859 163 180 224 
0.0688663 -0.174449 1.99734 70 55 60 
-0.0529412 -0.185983 1.97424 90 76 73 
0.154752 -0.0527925 2.02565 242 237 233 
0.147077 -0.0502064 2.01305 219 206 197 
0.159825 -0.0496178 2.03108 207 198 199 
-0.139745 -0.0495035 1.95381 202 196 182 
-0.12284 -0.0490017 1.95229 235 224 220 
-0.145257 -0.0444981 1.9554 73 61 61 
-0.149597 -0.0432266 1.9524 222 220 197 
0.0332772 -0.217678 2.01838 54 32 19 
-0.107776 0.169203 1.86065 69 55 55 
0.15315 -0.0294977 2.0217 67 63 54 
-0.212913 -0.0419655 1.98664 80 71 64 
0.202662 0.0412194 2.06509 206 202 190 
-0.0575287 -0.129384 1.94763 99 92 76 
0.051907 -0.1664 1.9852 107 90 74 
0.274608 0.311162 2.16569 75 69 83 
-0.139786 -0.395415 2.22543 92 84 97 
-0.217214 -0.0424115 1.99403 104 100 97 
-0.10532 0.168314 1.85567 51 38 45 
-0.0558824 -0.393267 2.1668 149 123 96 
-0.0477633 0.150766 1.84268 132 125 119 
0.287798 0.139038 2.31212 172 170 155 
-0.0535884 -0.186421 1.97627 90 76 73 
0.111594 -0.155723 2.03307 85 75 74 
0.202082 0.0414313 2.06405 206 202 190 
-0.0588947 -0.1293 1.93924 224 219 200 
0.164699 -0.0421854 2.03642 190 187 180 
-0.139745 -0.0495035 1.95381 202 196 182 
0.153951 -0.0489907 2.02164 227 225 210 
-0.127151 -0.0533943 1.95251 192 178 169 
0.0834287 -0.130178 1.96959 81 67 58 
-0.0574017 -0.129547 1.94781 70 62 59 
0.244113 -0.144157 2.41722 45 50 69 
0.144768 -0.0506914 2.01987 181 170 152 
0.0504364 0.0275671 1.89886 250 244 232 
-0.0468313 0.150169 1.84058 132 125 119 
-0.0924678 0.161189 1.83401 103 91 101 
-0.0340693 -0.409141 2.17992 195 158 105 
-0.144948 -0.0457212 1.95364 73 68 64 
-0.219205 -0.050024 1.99565 63 53 61 
-0.155861 -0.0411581 1.96095 188 182 166 
-0.217073 -0.0426889 1.99446 46 42 41 
0.165118 -0.042417 2.03817 158 159 141 
-0.14282 -0.156282 1.95795 58 46 60 
0.0160576 -0.150069 1.96488 135 118 100 
0.0835554 -0.130568 1.96945 91 76 71 
-0.0658546 -0.129652 1.9552 113 104 107 
-0.060875 0.115601 1.84664 255 253 251 
-0.0177036 -0.367106 2.1411 202 185 165 
0.230607 -0.152246 2.40209 75 64 58 
-0.0315621 0.167891 1.82601 174 157 149 
0.240299 -0.143206 2.41211 32 37 43 
-0.032639 -0.407443 2.17373 201 174 131 
-0.0343844 -0.362729 2.14157 52 30 53 
-0.0324785 0.167516 1.82805 209 199 200 
-0.0575173 -0.121448 1.92936 107 98 89 
-0.151825 -0.0421308 1.95279 207 200 190 
-0.0201348 0.234402 1.8337 68 64 79 
-0.14504 -0.0460527 1.9524 73 68 64 
-0.218617 -0.0491921 1.99465 54 45 48 
0.14868 -0.03158 2.01769 66 65 73 
0.110429 -0.129159 1.99573 184 177 169 
-0.0322708 -0.404127 2.16825 168 150 114 
-0.0329998 -0.366415 2.14693 21 21 47 
-0.0614933 0.115197 1.84801 153 144 145 
-0.0511113 0.153158 1.85659 228 211 203 
-0.0919889 0.163548 1.85257 246 233 217 
-0.035183 0.165855 1.83303 176 166 154 
-0.132813 -0.142108 1.94572 222 213 198 
0.262963 0.0252592 2.29587 198 173 142 
-0.0614095 -0.121855 1.93972 107 98 89 
0.132108 -0.109626 2.01554 48 29 23 
-0.153328 -0.0432009 1.96133 206 197 190 
0.155388 -0.042983 2.02449 73 70 65 
-0.20572 -0.0601786 1.98833 233 217 204 
0.266616 0.000130426 2.30214 86 69 53 
-0.0588225 0.122415 1.84685 225 216 201 
-0.119078 0.171319 1.88806 166 147 141 
-0.0472686 -0.394668 2.15823 187 166 137 
-0.0640121 -0.37959 2.14882 171 154 144 
-0.09181 -0.368941 2.14354 65 53 39 
0.153279 -0.0425831 2.03055 67 55 59 
-0.0616033 -0.121842 1.93934 98 83 80 
-0.0228169 0.23715 1.83432 213 209 197 
0.134863 -0.10771 1.99851 48 37 41 
-0.192215 -0.0653417 1.98268 217 205 189 
-0.162529 -0.0387026 1.95234 63 62 67 
-0.0832148 0.161735 1.84008 228 219 214 
0.0691233 0.0782646 1.92575 208 199 184 
0.0610819 0.083874 1.91678 172 158 145 
-0.0647923 -0.381438 2.15035 227 195 157 
-0.0178479 -0.367677 2.14685 216 209 183 
-0.150594 -0.0444213 1.95519 97 97 97 
0.150786 -0.0427908 2.04075 56 47 50 
0.0585363 0.0340771 1.90775 80 63 53 
-0.0763276 0.0597786 1.85603 50 36 27 
0.0671793 0.0779908 1.93505 227 218 213 
-0.0160145 0.24033 1.83275 240 238 226 
-0.0216559 0.232379 1.82613 94 85 90 
-0.108224 0.164872 1.86769 127 107 82 
-0.0769368 0.16975 1.83359 103 89 80 
0.036866 0.0186872 1.87216 214 204 192 
-0.0815732 -0.116045 1.93895 109 98 80 
-0.129803 -0.051804 1.95236 219 214 208 
-0.20997 -0.048493 1.97727 56 46 44 
-0.0707312 0.0594059 1.84416 51 32 28 
0.0814947 0.135463 1.90168 161 154 146 
-0.0384323 0.145871 1.84466 36 26 24 
-0.0497633 0.149214 1.83753 17 14 21 
-0.0862132 0.153038 1.83275 108 80 59 
-0.0431584 0.166991 1.84802 223 217 201 
-0.0791156 0.169729 1.83811 110 93 85 
-0.0255782 0.234176 1.83551 46 49 68 
0.0361148 -0.115467 1.95744 214 207 188 
-0.0676434 0.15036 1.84507 89 69 62 
0.0243732 -0.052576 1.94293 181 168 149 
0.250581 -0.0788133 2.35514 211 204 178 
0.26138 -0.073195 2.35465 174 168 132 
0.259423 -0.0729046 2.32611 181 178 143 
-0.255442 0.302713 1.93094 202 185 155 
-0.314478 0.323229 2.00288 91 80 78 
0.0106647 -0.369353 2.1686 54 55 59 
-0.158376 -0.394444 2.2273 212 225 216 
-0.1717 -0.0802628 1.96553 212 205 195 
-0.0284807 -0.348865 2.11062 247 245 230 
0.246474 -0.0511683 2.31468 43 38 35 
0.157642 -0.0909613 2.04287 92 87 81 
0.144804 -0.0905913 2.01153 219 207 185 
-0.148174 -0.0913332 1.94227 254 247 228 
0.103453 -0.142743 1.97252 80 74 58 
0.218689 -0.122316 2.36635 173 170 135 
0.115974 -0.158268 2.02232 223 223 213 
0.14107 -0.102632 2.02 84 72 56 
0.268715 0.0152394 2.29243 167 151 125 
-0.119779 -0.157116 1.94924 68 60 49 
0.0455232 -0.161762 1.96998 124 106 94 
-0.156071 -0.172319 1.97569 100 90 78 
0.0267118 -0.118623 1.94026 77 66 60 
0.506581 0.480392 3.00794 73 73 71 
-0.257201 0.292163 1.93805 185 168 150 
-0.288139 0.311587 1.95612 196 187 158 
-0.258427 0.27092 1.94724 255 239 219 
-0.141057 -0.163855 1.97182 87 71 56 
-0.321081 0.313652 2.01071 214 192 153 
-0.00962208 -0.377419 2.15251 212 214 201 
0.00266832 -0.38587 2.19432 181 161 134 
-0.110812 -0.368436 2.15874 58 44 41 
0.275751 0.138032 2.27489 43 52 51 
0.142856 -0.273843 2.19916 217 211 185 
0.504078 0.476234 2.98069 82 78 75 
0.260537 0.304247 2.12578 73 61 49 
0.174479 -0.196464 2.1615 198 187 155 
-0.216099 -0.080266 1.99861 160 158 146 
0.166547 -0.0776331 2.04278 71 66 60 
0.158389 -0.24617 2.20022 160 161 143 
0.252597 0.305336 2.09143 82 75 69 
-0.271931 0.267801 1.95845 106 93 84 
0.098982 -0.143528 1.99353 112 105 89 
-0.0343699 -0.392393 2.1606 94 91 86 
-0.248897 0.28576 1.91117 114 100 91 
0.124176 -0.109342 1.99962 199 187 165 
-0.0665826 -0.137876 1.94013 131 122 107 
0.278209 0.289101 2.17429 150 141 126 
0.269959 -0.0830708 2.35373 47 53 53 
0.244917 -0.0789375 2.33776 77 70 60 
0.12091 -0.125429 2.02115 217 208 193 
-0.130699 -0.388805 2.19831 35 32 51 
-0.151909 -0.371131 2.18705 119 126 132 
0.255122 -0.0375078 2.3273 250 241 210 
-0.139842 -0.377493 2.19145 188 173 142 
0.29157 0.124951 2.30379 74 79 83 
0.154177 -0.0914326 2.02634 212 208 196 
-0.0124423 -0.381341 2.17 145 145 117 
0.0821618 -0.133313 1.99812 126 116 106 
0.263234 -0.0167239 2.28911 153 146 120 
-0.0731855 -0.382363 2.17303 211 198 153 
-0.0225764 -0.353878 2.12265 111 98 90 
0.254806 0.0144696 2.27139 59 51 32 
0.28944 0.1515 2.35441 64 66 63 
-0.128188 -0.140619 1.92993 224 218 196 
0.146937 -0.0984969 2.03909 76 66 54 
0.17037 -0.212534 2.20433 65 65 55 
-0.127964 -0.40421 2.20887 243 252 247 
-0.0240672 -0.378642 2.14604 44 39 45 
-0.0620424 -0.15083 1.94382 122 115 99 
-0.191044 -0.0616444 1.96305 219 207 191 
0.292475 0.140005 2.25059 62 68 64 
0.266907 0.00147563 2.27039 105 94 72 
0.0538874 0.0307235 1.88846 166 167 153 
-0.110435 -0.379372 2.17001 190 176 147 
-0.0704779 -0.405275 2.19687 69 73 58 
0.278021 0.303693 2.17772 160 158 145 
-0.219728 -0.0382718 1.99848 203 194 179 
-0.0806098 0.159957 1.82637 245 238 220 
-0.0371882 -0.410569 2.19428 156 136 109 
-0.0644207 -0.363584 2.12591 47 42 49 
-0.0509164 -0.363864 2.12976 47 43 44 
0.230078 0.189446 1.32474 96 97 118 
-0.166051 -0.0384388 1.96757 82 82 84 
0.266916 0.00142182 2.30518 97 94 75 
0.300052 0.0999386 2.36757 155 147 126 
-0.0997148 -0.372086 2.15292 64 64 62 
-0.0584527 -0.373098 2.16535 50 44 46 
-0.139225 -0.363225 2.16469 159 144 125 
-0.100284 0.0757123 1.88777 204 201 182 
-0.0749574 0.103997 1.84587 192 177 156 
0.278393 0.139927 2.22632 222 221 190 
0.294377 0.143982 2.27838 56 65 64 
-0.200699 -0.073214 1.98812 103 91 79 
0.0556594 -0.0190305 1.9563 98 98 98 
0.134308 -0.0262773 2.00778 230 224 210 
-0.0779445 0.184263 1.30389 168 149 117 
-0.147373 -0.0346898 1.96903 138 126 110 
0.0539042 0.0420625 1.87393 158 151 135 
-0.077466 -0.114077 1.91684 168 154 145 
-0.0649447 0.0422046 1.83578 137 124 107 
-0.145766 0.238805 1.99066 177 162 141 
0.0176564 -0.0477498 1.91764 112 109 100 
0.191454 0.0199034 2.05489 88 93 89 
-0.238006 -0.322431 2.17712 60 98 145 
-0.120965 -0.116304 1.93533 190 178 156 
-0.116721 0.193302 1.85653 189 171 157 
-0.0858626 0.043233 1.85891 178 167 145 
0.264456 0.160155 2.23601 49 37 23 
0.216763 0.0201561 2.20305 210 210 186 
0.213234 -0.122846 2.35438 139 140 124 
0.138926 -0.280159 2.22967 217 211 185 
0.199483 0.03353 2.08955 234 237 228 
0.187716 -0.116509 2.12217 72 63 48 
0.24991 0.00999389 2.315 70 63 55 
0.20183 0.00263839 2.09093 239 235 206 
0.250377 0.0588383 2.27841 188 186 161 
0.281824 -0.0526468 2.40762 179 178 157 
0.198869 -0.127952 2.33801 190 196 182 
0.255821 0.143967 2.20159 185 178 152 
0.261846 -0.0164002 2.35353 213 199 172 
0.314965 0.119051 2.4384 226 221 201 
0.209263 -0.171207 2.42592 141 134 116 
0.219708 -0.052673 2.33257 56 59 68 
-0.0653694 -0.142041 1.9516 240 233 225 
0.2155 -0.158789 2.42053 67 58 51 
0.233865 0.0230233 2.25171 167 165 144 
-0.0270755 -0.382975 2.20741 220 200 163 
0.222127 -0.162191 2.43967 56 46 47 
-0.158673 -0.396148 2.23128 184 185 180 
-0.0312818 -0.378112 2.16837 163 144 114 
0.255273 -0.0364687 2.32554 250 241 210 
0.152504 -0.0539889 2.04082 235 234 213 
0.289987 0.134644 2.38296 173 173 147 
0.142118 -0.0920026 2.01872 200 186 159 
0.254904 0.0356349 2.29392 87 83 71 
0.242995 -0.00405054 2.3117 77 76 72 
0.24245 -0.14228 2.39697 67 67 75 
0.219985 -0.158973 2.47266 164 150 123 
-0.128147 -0.401473 2.20929 184 198 198 
-0.0436989 -0.38246 2.1478 189 176 134 
-0.0700206 -0.399361 2.22208 59 42 35 
-0.19148 -0.357859 2.19527 70 73 78 
-0.107883 -0.0435404 1.93649 88 81 88 
-0.138522 -0.0454147 1.9391 88 79 82 
-0.0567956 -0.387997 2.13967 64 66 55 
0.130443 -0.108403 2.02825 70 51 45 
0.215563 -0.056821 2.36271 43 47 50 
0.155514 -0.0311102 1.9905 83 82 77 
-0.184704 -0.0663611 1.96891 210 199 181 
0.166762 -0.216705 2.24148 65 65 55 
-0.0497245 -0.421002 2.20172 34 34 36 
-0.146858 -0.144477 1.97495 223 217 201 
0.271946 -0.0478268 2.3938 50 54 57 
-0.0714187 -0.357298 2.11807 107 78 60 
-0.0905034 0.159286 1.81459 119 101 81 
-0.0901081 -0.365387 2.12647 73 68 62 
0.279746 -0.0133283 2.38066 98 94 85 
-0.162519 -0.381729 2.24071 159 144 125 
0.277789 -0.0169981 2.3614 80 86 76 
0.207746 -0.00336091 2.13143 55 59 58 
0.255688 0.0258449 2.34823 199 175 139 
0.000417264 0.260622 1.66594 82 82 84 
-0.0853482 0.108327 1.87722 192 177 156 
0.0456522 0.0416056 1.89904 156 149 131 
-0.215733 -0.385255 2.2438 37 38 40 
0.0872441 0.0632456 1.87982 106 90 75 
-0.0830021 0.0946294 1.86347 102 92 93 
0.244388 -0.134695 2.27783 56 63 56 
-0.105704 0.218424 1.87648 177 162 141 
-0.113857 -0.116723 2.00036 106 95 73 
