ply                 
format ascii 1.0    
element vertex 770
property float x    
property float y    
property float z    
property uchar red  
property uchar green
property uchar blue 
end_header          
0.180616912533255 0.158608738450448 0.848170213441172 0 255 0
0.180066346758779 0.158678953440695 0.847936071386607 0 255 0
0.179233280901348 0.158152831800267 0.848725111297690 0 255 0
0.179722864169223 0.158467844993776 0.847982964216583 0 255 0
0.180734009254335 0.158249825565811 0.848435430323540 0 255 0
0.179356155226211 0.158288063739623 0.848417007188745 0 255 0
0.179081061067068 0.158412475624417 0.848137331251096 0 255 0
0.179461876624353 0.158395446625188 0.848171142264229 0 255 0
0.179350130483990 0.158451731610917 0.848067341800344 0 255 0
0.179520350010410 0.158390433932565 0.848230721808646 0 255 0
0.179252871896867 0.158361886412730 0.848253034334604 0 255 0
0.179742929437196 0.158379575441984 0.848234881307175 0 255 0
0.180919302487124 0.159095553911993 0.848850229253289 0 255 0
0.180594759997728 0.159115785543355 0.848183474590521 0 255 0
0.180523624419896 0.158639053997720 0.848072041893656 0 255 0
0.180523612554998 0.158639121782810 0.848072597378141 0 255 0
0.179214208261146 0.158213733234090 0.848605387180110 0 255 0
0.180670209460648 0.158710181275431 0.848205471511672 0 255 0
0.180090262888258 0.158168127695515 0.848609027685564 0 255 0
0.180569121257836 0.158529521784111 0.848107659951104 0 255 0
0.180691810434892 0.158655424345926 0.848220975265851 0 255 0
0.180565265155972 0.158666911589049 0.848109027227082 0 255 0
0.180619073022888 0.158462386040755 0.848150754883901 0 255 0
0.180639890481993 0.158408284882514 0.848166455342490 0 255 0
0.178691666870400 0.158726761188551 0.847498845853876 0 255 0
0.180750180664792 0.158584403726959 0.848251739247306 0 255 0
0.180915212064845 0.158165228727218 0.848626734967183 0 255 0
0.180315836233760 0.158101371958135 0.848728682633790 0 255 0
0.180749250580413 0.158102775068501 0.848727864713829 0 255 0
0.181028179409802 0.158896156814057 0.848612437342068 0 255 0
0.180972910526386 0.159010291405479 0.848657417513184 0 255 0
0.179266204715762 0.158407572236827 0.848164641869164 0 255 0
0.180494629828962 0.158176030683467 0.848547374667229 0 255 0
0.178995598518231 0.158294526788195 0.848432332779996 0 255 0
0.180108023662596 0.158249050728124 0.848427401380289 0 255 0
0.179441366202338 0.158480349154039 0.847985697948925 0 255 0
0.179700550275577 0.158458955020461 0.848011876577782 0 255 0
0.178067111079163 0.160205641278680 0.847372040727046 0 255 0
0.179568682184297 0.158420135311078 0.848114824640933 0 255 0
0.180575838388119 0.158218264323748 0.848496416691948 0 255 0
0.179136578149636 0.158247257613425 0.848549532512572 0 255 0
0.180540020975142 0.158543358316709 0.848079309295985 0 255 0
0.180539904748200 0.158543309682692 0.848083241743650 0 255 0
0.180782306450124 0.158513656275233 0.848256148585624 0 255 0
0.180622960796274 0.158973196528293 0.848144112353150 0 255 0
0.181003279129638 0.158694692771560 0.848707213192161 0 255 0
0.180559584219999 0.158088530201971 0.848797909372305 0 255 0
0.180626582403383 0.158951458705788 0.848138613238792 0 255 0
0.178854967536384 0.158500909308135 0.848023345855407 0 255 0
0.178408124727080 0.158703488101501 0.847552581884893 0 255 0
0.179118890674938 0.158398189144451 0.848215046649677 0 255 0
0.178015757302531 0.159735542088700 0.847250833376886 0 255 0
0.181036850782932 0.158800842013352 0.848714754590835 0 255 0
0.180503585069313 0.158183895716994 0.848527795254059 0 255 0
0.179255225749604 0.158362611379106 0.848256197485240 0 255 0
0.180553146286825 0.158171842886659 0.848549470878427 0 255 0
0.180711781445354 0.158137471561735 0.848621877805324 0 255 0
0.180819130997842 0.158088493562660 0.848817824204363 0 255 0
0.179573570582194 0.158460369947410 0.848007914833175 0 255 0
0.180769453577662 0.158111402656176 0.848716964406787 0 255 0
0.180097036730724 0.158263364795300 0.848409517803036 0 255 0
0.179373694512820 0.158225918347949 0.848577352174476 0 255 0
0.179199722171610 0.158237531672883 0.848723267060885 0 255 0
0.178847748648112 0.158376251808593 0.848319749077185 0 255 0
0.180324405671462 0.158080817769592 0.848758807039505 0 255 0
0.180759948173535 0.158082786375877 0.848782387944224 0 255 0
0.180556705040068 0.158625193051722 0.848100560528642 0 255 0
0.180634039857425 0.158544284070356 0.848180839742348 0 255 0
0.180653444794309 0.158490228819909 0.848206425229537 0 255 0
0.180805078400348 0.158966845419129 0.849003229367479 0 255 0
0.180586434957863 0.159068682758630 0.848160187992350 0 255 0
0.179501785495089 0.158215253879470 0.848350300730631 0 255 0
0.179129328019115 0.158226808502690 0.848619210990842 0 255 0
0.180975718146838 0.159031913632988 0.848703386028690 0 255 0
0.178876197504361 0.158372753195134 0.848253015723893 0 255 0
0.178953190851967 0.158345230100604 0.848360413126207 0 255 0
0.180133113360909 0.158120043954634 0.848672111534752 0 255 0
0.180748994327131 0.158325238158330 0.848533487452014 0 255 0
0.180522301523360 0.158261547369789 0.848401301786670 0 255 0
0.180773205952076 0.158088667369258 0.848726233852455 0 255 0
0.180551992129151 0.158078915962795 0.848765282219210 0 255 0
0.180611275476529 0.158736553971311 0.848152833374600 0 255 0
0.179755410568950 0.158072993464477 0.848911077594820 0 255 0
0.179274908772577 0.158082393662669 0.848860633890296 0 255 0
0.179238780537764 0.158114914648731 0.848837199369054 0 255 0
0.179289664742816 0.158086503854145 0.848873829680559 0 255 0
0.177991171127299 0.159611110220497 0.847220073523278 0 255 0
0.180460208737618 0.158519652113942 0.848013191986470 0 255 0
0.179691061466991 0.158562469219971 0.847840513453241 0 255 0
0.179973008612463 0.158128720086442 0.848672966791704 0 255 0
0.179512022062920 0.158386807672000 0.848215555439420 0 255 0
0.179368585807159 0.158318734110723 0.848362474801929 0 255 0
0.180276324701784 0.158096684830260 0.848744747877677 0 255 0
0.177785722658716 0.159083937524305 0.847264789837948 0 255 0
0.180624270426771 0.159205558361716 0.848236440605024 0 255 0
0.181035778315791 0.158733220985308 0.848707746848865 0 255 0
0.177997984655469 0.159115379001475 0.847030500003968 0 255 0
0.180378988263922 0.158063276001351 0.848791629420236 0 255 0
0.178098788254920 0.158755489072414 0.847548954394423 0 255 0
0.178015658347226 0.159614652006791 0.847202273323309 0 255 0
0.180616317747877 0.158836633461628 0.848113302843162 0 255 0
0.178811161425370 0.158350683932709 0.848362604829187 0 255 0
0.178015414284959 0.159735745615974 0.847250361446689 0 255 0
0.180650342130774 0.158626172312921 0.848200452677730 0 255 0
0.179218941056785 0.158219347964915 0.848846258382914 0 255 0
0.180664682265815 0.158531372791752 0.848199472099735 0 255 0
0.177862736642539 0.159796081910895 0.847438589299148 0 255 0
0.179457822168851 0.158183585954283 0.848650695664310 0 255 0
0.180707675766762 0.158926451437110 0.848229183104555 0 255 0
0.177730790454099 0.159522318856008 0.847472935490986 0 255 0
0.179284022425037 0.158060094400218 0.848932469882474 0 255 0
0.180405159487927 0.158085595425841 0.848751178950836 0 255 0
0.179896338069296 0.158064381855292 0.848879429950051 0 255 0
0.179229278374830 0.158250790414150 0.848804079984059 0 255 0
0.180209911153904 0.158249938608029 0.848447359976913 0 255 0
0.179329459613565 0.158173273769773 0.848665324510389 0 255 0
0.180673603451007 0.158573161042347 0.848204430102044 0 255 0
0.180669513574195 0.159075764914478 0.848235242305860 0 255 0
0.180182554369609 0.158120652352739 0.848652791009229 0 255 0
0.180548991569369 0.158221816848734 0.848444728834548 0 255 0
0.179426881071959 0.158041184592778 0.848930334256298 0 255 0
0.179617432923914 0.158267410760703 0.848426751609697 0 255 0
0.180751152011524 0.158284586889849 0.848323344037752 0 255 0
0.178063783661202 0.159739683805647 0.847192522420580 0 255 0
0.178065880155736 0.158706838456026 0.847734055489739 0 255 0
0.179257610558414 0.158164317033054 0.848903700209975 0 255 0
0.180518436460044 0.158181100299301 0.848524574213585 0 255 0
0.179144599884970 0.158721526343246 0.847563936156470 0 255 0
0.178445929539911 0.158461029676165 0.848157120279366 0 255 0
0.179348777885947 0.158182073671715 0.848641698789661 0 255 0
0.179243021858088 0.158248373135720 0.848872382967733 0 255 0
0.177867457218648 0.160267151880000 0.847680403862116 0 255 0
0.177756319803134 0.159664770073262 0.847501948554038 0 255 0
0.180523520163082 0.158639075065795 0.848072894346327 0 255 0
0.180573615335316 0.158707854488996 0.848116737742912 0 255 0
0.180648846402428 0.158447891336673 0.848177544219261 0 255 0
0.177777427592936 0.160107041908680 0.847693119438780 0 255 0
0.177662911220268 0.158990714249387 0.847324765522092 0 255 0
0.179236743906043 0.158262875101260 0.848865767390513 0 255 0
0.178011899623792 0.159438832954589 0.847068987827573 0 255 0
0.177787581450347 0.159637081529466 0.847461888178531 0 255 0
0.177565341721821 0.159357060399952 0.847607401933351 0 255 0
0.178059238899575 0.160035802277765 0.847287074575620 0 255 0
0.179335308940516 0.158564858179166 0.847852051861001 0 255 0
0.179345158958473 0.158339046710395 0.848297348683373 0 255 0
0.180699016113845 0.158118546755271 0.848649246895580 0 255 0
0.179309875346110 0.158146860337074 0.848720769734448 0 255 0
0.178294684477106 0.158494209839160 0.848011521171612 0 255 0
0.180088373646647 0.158078437946507 0.848784109162991 0 255 0
0.179708627699879 0.158099516612028 0.848679299263257 0 255 0
0.179256587942862 0.158223494370499 0.848916678638005 0 255 0
0.180817176203848 0.158771228411267 0.848308028544671 0 255 0
0.180206379556829 0.158070647220823 0.848783122784947 0 255 0
0.180417278784057 0.158245823121962 0.848436000468495 0 255 0
0.180650965011637 0.158626557800262 0.848197093604966 0 255 0
0.180522947844559 0.158461668360092 0.848057936055928 0 255 0
0.179475348044286 0.158025297541886 0.848974672713154 0 255 0
0.180430973920195 0.158070701104491 0.848716001475571 0 255 0
0.179095085572665 0.159524083512742 0.847845095617491 0 255 0
0.177724406771360 0.159508769469988 0.847488813951703 0 255 0
0.179271916569150 0.158461920958648 0.848215417337900 0 255 0
0.178539939075362 0.158401762365951 0.848293852870531 0 255 0
0.180206201022353 0.159712702286385 0.847990378672802 0 255 0
0.180683830327773 0.158255950573172 0.848426318206456 0 255 0
0.180097316874027 0.158232460205561 0.848454907032086 0 255 0
0.180248303269455 0.158091060991323 0.848745219852713 0 255 0
0.180234392811867 0.158082859696402 0.848778418620573 0 255 0
0.180639382642910 0.158960173847847 0.848160692225260 0 255 0
0.180178053573963 0.158070771673124 0.848789599531315 0 255 0
0.180606805791978 0.158831768452347 0.848094206038986 0 255 0
0.178201893698559 0.158720185431317 0.847580853322618 0 255 0
0.180643782335191 0.158205418998633 0.848493037352833 0 255 0
0.177888276420588 0.158697549597324 0.847738341463667 0 255 0
0.179220837849774 0.158291996732343 0.848796261821135 0 255 0
0.179970683285968 0.158051877165427 0.848855300991595 0 255 0
0.179847839765991 0.158261229700625 0.848451468869308 0 255 0
0.179387159055277 0.158185848442303 0.848640824371262 0 255 0
0.177685190489000 0.159470588034354 0.847490572785848 0 255 0
0.177769624553182 0.159300883103241 0.847345928248568 0 255 0
0.180593170890650 0.158959533101555 0.848121868093820 0 255 0
0.178325338496424 0.158515845935167 0.848091737580176 0 255 0
0.177503768133127 0.158988157226912 0.847457609166903 0 255 0
0.178368320028377 0.158477649368026 0.848138719802256 0 255 0
0.180560772362410 0.158488666559810 0.848094163201928 0 255 0
0.179236101094671 0.158145428089921 0.848912555069142 0 255 0
0.178999493749143 0.158325067657566 0.848567931117160 0 255 0
0.179448634155506 0.158003797890473 0.849011628513228 0 255 0
0.180883652267497 0.158447140186834 0.848553367747560 0 255 0
0.180653329173129 0.158888376221970 0.848144684254382 0 255 0
0.180725366373258 0.158641738134750 0.848250565325772 0 255 0
0.179264171896731 0.158254814113115 0.848934186555420 0 255 0
0.180470144009571 0.158584960513468 0.848012594876879 0 255 0
0.177549010299240 0.160114777329759 0.847991729177884 0 255 0
0.177593098210770 0.160036802035500 0.847924163538017 0 255 0
0.177763427769070 0.159848315544825 0.847570933553788 0 255 0
0.177631242074258 0.160112430154675 0.847897084963636 0 255 0
0.180562397535338 0.158329045346067 0.848251164498998 0 255 0
0.179070445977246 0.158756553078613 0.847535907285642 0 255 0
0.179244105862476 0.158308375314559 0.848923389936477 0 255 0
0.180602799992959 0.158694878160027 0.848140516577465 0 255 0
0.180094241093497 0.158132880216289 0.848660861676459 0 255 0
0.179429764474217 0.158177238608853 0.848648440811606 0 255 0
0.180505583821495 0.158086382429116 0.848739746157345 0 255 0
0.180085451052438 0.158065529197879 0.848816424639582 0 255 0
0.177557168773579 0.159691920458074 0.847756009107906 0 255 0
0.179253488757977 0.158169132277969 0.848702502254034 0 255 0
0.177562452671433 0.159483825228546 0.847658037841795 0 255 0
0.177944411388342 0.159185459539624 0.847056974286045 0 255 0
0.179268279212829 0.158160764646997 0.848947690573422 0 255 0
0.178894490807678 0.158375385593131 0.848273669026438 0 255 0
0.177427918067692 0.158931154771998 0.847532820457752 0 255 0
0.178289534504335 0.158765007644883 0.847521023789908 0 255 0
0.177456866583239 0.159261442354171 0.847682808847650 0 255 0
0.179237135215966 0.158263007992845 0.848866017576241 0 255 0
0.177434159644094 0.159114384706729 0.847609925304963 0 255 0
0.180653316899017 0.158887803801304 0.848138855319330 0 255 0
0.178344799218122 0.158451273540252 0.848204153717252 0 255 0
0.177760933052812 0.160035182858726 0.847591772432779 0 255 0
0.180067532146669 0.158117559763284 0.848671133277046 0 255 0
0.180496338494852 0.158115964811698 0.848689141067749 0 255 0
0.180190147675763 0.158097804132116 0.848731893097178 0 255 0
0.177670221039213 0.159662749391946 0.847613697876313 0 255 0
0.179352208734312 0.158339828165407 0.848306662248812 0 255 0
0.180417304728464 0.158245815433463 0.848436245469936 0 255 0
0.177581021996408 0.160114728251017 0.847955009448705 0 255 0
0.180305148930973 0.158225125318526 0.848472724734939 0 255 0
0.180496550678033 0.158192675690701 0.848505422105438 0 255 0
0.180888794350923 0.158313384332693 0.848407568687453 0 255 0
0.179769128741809 0.158072938289372 0.848820971433862 0 255 0
0.180750657749661 0.158730493623296 0.847655976165504 0 255 0
0.180591916064593 0.159241743781308 0.848244841330871 0 255 0
0.180995437773482 0.159049977807044 0.848658374841054 0 255 0
0.179288578945984 0.158167617340980 0.848962382475109 0 255 0
0.180669396454956 0.159076181927870 0.848233421433935 0 255 0
0.180565907121914 0.159002419794728 0.848126054430826 0 255 0
0.179095963427575 0.158541884411782 0.847879520717157 0 255 0
0.178484695662374 0.158375909865192 0.848287584581100 0 255 0
0.177557989476136 0.159194510719630 0.847550311834438 0 255 0
0.178142910162444 0.158545974730053 0.848068481577399 0 255 0
0.179326254448354 0.158385952354259 0.848969576953179 0 255 0
0.180874082820976 0.158138664898425 0.848648440696478 0 255 0
0.178041622905508 0.160247257199345 0.847414994207003 0 255 0
0.178078569913981 0.160219144261414 0.847448210401792 0 255 0
0.177520370049825 0.160057356083243 0.848015650592943 0 255 0
0.177583301615487 0.160042229830298 0.847917772900036 0 255 0
0.177978493987571 0.159884869641816 0.847310798437963 0 255 0
0.177391310955859 0.159262055339118 0.847832226970843 0 255 0
0.179922293673153 0.158037920211930 0.848905209864802 0 255 0
0.178009984407961 0.158512571968627 0.848102665794583 0 255 0
0.180565019160156 0.158666724828829 0.848110063720300 0 255 0
0.179256625811004 0.158169612011259 0.848704971793805 0 255 0
0.177433131452542 0.159720002301099 0.847947551925659 0 255 0
0.178503361986358 0.158401127311955 0.848389457018975 0 255 0
0.177360006475365 0.159144469100075 0.847720332446400 0 255 0
0.177388150796153 0.159014087271466 0.847639862266000 0 255 0
0.180913825280128 0.158166733780381 0.848629875013174 0 255 0
0.177441772587490 0.160096412944899 0.848159576626321 0 255 0
0.179256083234506 0.158309908546332 0.848954847689197 0 255 0
0.177350427722203 0.159228236381782 0.847775068422233 0 255 0
0.177657046448451 0.160095718715838 0.847911420932325 0 255 0
0.180640374724791 0.158720407707895 0.848174193436122 0 255 0
0.177990852581799 0.158546678830012 0.848077012748234 0 255 0
0.177400507965642 0.160022801510758 0.848155520356819 0 255 0
0.180664527146989 0.158409369999571 0.848184482705091 0 255 0
0.179198702255391 0.158264342523692 0.848735105539256 0 255 0
0.180806613532837 0.158357270506414 0.848265780119609 0 255 0
0.179226173680974 0.158288172433644 0.848830188784231 0 255 0
0.179270293797836 0.158265164972643 0.849000317770424 0 255 0
0.177383775619637 0.159598735304193 0.847961678343149 0 255 0
0.179750597128684 0.158083444816566 0.848800896409291 0 255 0
0.180852774145433 0.158312540567443 0.848543036161873 0 255 0
0.177515279871044 0.159763681001003 0.847864730281702 0 255 0
0.177430855961727 0.159720958966992 0.847946681717867 0 255 0
0.177356271661713 0.159389395980922 0.847864515512014 0 255 0
0.177644348359504 0.160063694163603 0.848156952429555 0 255 0
0.180617566929937 0.159471227970235 0.848365346040539 0 255 0
0.178693578572410 0.158391623091623 0.848294160805255 0 255 0
0.177449476236723 0.160079864611533 0.848123003357395 0 255 0
0.177456627339809 0.159530788892284 0.847804493738351 0 255 0
0.179426436884679 0.158143433856247 0.848733032059220 0 255 0
0.179801103098318 0.158039081342047 0.848876649242767 0 255 0
0.179200709826831 0.158233325664254 0.848829110268751 0 255 0
0.177882724231323 0.160240636848521 0.847579551090165 0 255 0
0.178033795598963 0.159123849137057 0.846935180591551 0 255 0
0.179312733905478 0.158006772992684 0.849050484439191 0 255 0
0.178001150054836 0.158485160567609 0.848167683379167 0 255 0
0.180734128960389 0.158249218789469 0.848431039234756 0 255 0
0.180744316638121 0.158177495384654 0.848540034693040 0 255 0
0.177230198044449 0.158799887849260 0.847720458351221 0 255 0
0.178010794076565 0.160324634265224 0.847519476537754 0 255 0
0.177776821459591 0.159607988613741 0.847443470585345 0 255 0
0.179302058948018 0.158019547748211 0.849026518956326 0 255 0
0.180859784234537 0.158183780616112 0.848563607676773 0 255 0
0.178450119428493 0.158379426870564 0.848431530398582 0 255 0
0.180661432171350 0.158148404211116 0.848604279749751 0 255 0
0.177239861789060 0.158861528695825 0.847721681885375 0 255 0
0.179672115708052 0.158120553548732 0.848652223540210 0 255 0
0.177798732190384 0.160308562212075 0.847707756195187 0 255 0
0.180708904389456 0.158130668250566 0.848555736881073 0 255 0
0.180698696871589 0.158126798458653 0.848617611568949 0 255 0
0.179354799833337 0.158182379059835 0.848647337454825 0 255 0
0.177418368933260 0.159935100954432 0.848131279228053 0 255 0
0.177763067266906 0.159847957462543 0.847570801263677 0 255 0
0.179412366326210 0.158441296296162 0.848087583532619 0 255 0
0.177419364203862 0.159355758101887 0.847762771411450 0 255 0
0.177502399975849 0.159306296678512 0.847619478279969 0 255 0
0.179721493357345 0.158468062277242 0.847981515890971 0 255 0
0.177341661251448 0.158991163548030 0.847737398485859 0 255 0
0.177775453233158 0.159385208845301 0.847395940774814 0 255 0
0.177327735496023 0.158919692640381 0.847645995944781 0 255 0
0.177227382783875 0.158700434993674 0.847782445874672 0 255 0
0.179305711339003 0.158151799353574 0.849066940961318 0 255 0
0.179233643528017 0.158329256154629 0.848942947207574 0 255 0
0.180886664514268 0.158300371813511 0.848423168130656 0 255 0
0.180519204481733 0.158251479522741 0.848432753513593 0 255 0
0.180619250525363 0.158462070302084 0.848149913800270 0 255 0
0.179416359708243 0.158063519321845 0.848920600113759 0 255 0
0.177970237610348 0.159529452607246 0.847185575122788 0 255 0
0.177957743769981 0.159272632310413 0.847064711483993 0 255 0
0.180635029506179 0.158268352687618 0.848384370226287 0 255 0
0.177495000069468 0.159910764467418 0.847996806818179 0 255 0
0.177401986716671 0.159562377982996 0.847953250696245 0 255 0
0.177417937724775 0.159811554383911 0.848017823577381 0 255 0
0.178037865909433 0.160097794645338 0.847413316945649 0 255 0
0.179259015938321 0.158136898615270 0.848885698401683 0 255 0
0.177175721645264 0.159025997335538 0.847862735165383 0 255 0
0.177619291841403 0.159240449022066 0.847441734031120 0 255 0
0.177268177721462 0.159108539344348 0.847816491739301 0 255 0
0.179386265961878 0.158132919225707 0.848639092059744 0 255 0
0.178342572284392 0.158447846221567 0.848203510114713 0 255 0
0.179827200452362 0.158027889481254 0.848906746732131 0 255 0
0.177235334658726 0.158861933352369 0.847719236185671 0 255 0
0.179519874760970 0.158473969521834 0.848030887001862 0 255 0
0.177302750293288 0.160088599344279 0.848249270328174 0 255 0
0.179905513395790 0.158031696704637 0.848905901615976 0 255 0
0.177247682347730 0.159250096042010 0.847966654957799 0 255 0
0.177130917660135 0.159056056692093 0.847929525516243 0 255 0
0.180105857686785 0.158174612849785 0.848546150533452 0 255 0
0.180517252227805 0.158218466027853 0.848469622052995 0 255 0
0.179940316363082 0.158140074322803 0.848651078756307 0 255 0
0.179774832281178 0.158407276991148 0.848120683824437 0 255 0
0.178058766847558 0.159981431062016 0.847369061293796 0 255 0
0.177221421445494 0.159387871300322 0.848121106741070 0 255 0
0.177312345297817 0.160031666373986 0.848292261278130 0 255 0
0.179293351918609 0.158181112632025 0.849056751508910 0 255 0
0.177197966806207 0.159279712134195 0.847996878311144 0 255 0
0.180175727370981 0.158119786158318 0.848639923084903 0 255 0
0.180839575586077 0.158574343406022 0.848327258290580 0 255 0
0.177952568428993 0.159106554761066 0.847173928249350 0 255 0
0.179970819660340 0.158077875596812 0.848793038948143 0 255 0
0.179037685967120 0.158342513390176 0.848856191227628 0 255 0
0.177573326769282 0.159176223900675 0.847729150560163 0 255 0
0.177187623998860 0.159565385278511 0.848189047401570 0 255 0
0.177204377239954 0.159560342622048 0.848195042715643 0 255 0
0.177399780160097 0.159247610598174 0.847754445060411 0 255 0
0.179308975345073 0.158158457098788 0.849088983033908 0 255 0
0.179623227103253 0.158261523178018 0.848467599193196 0 255 0
0.178060105951291 0.158473552803010 0.848155377492337 0 255 0
0.180635864187341 0.158545291357850 0.848161285876231 0 255 0
0.178815497201196 0.158769202396574 0.847424103405286 0 255 0
0.179286282213458 0.158167676976066 0.848960973638847 0 255 0
0.177968818674114 0.160229203765237 0.847483940195240 0 255 0
0.177177684697968 0.159284291910534 0.847985909973068 0 255 0
0.178998129824373 0.158775188874312 0.847477860398825 0 255 0
0.179199508103377 0.158230930387542 0.848830428461286 0 255 0
0.177335041963009 0.160032278295762 0.848316645519466 0 255 0
0.177353677014446 0.160041188168358 0.848220217177839 0 255 0
0.177912568701253 0.158523732121544 0.848098828682376 0 255 0
0.178328559317548 0.158515762774103 0.848093756164371 0 255 0
0.177579915236876 0.160043432169800 0.847916107425692 0 255 0
0.180847097733378 0.158138356464610 0.848618212210093 0 255 0
0.180751399172057 0.158700822232743 0.848272353936359 0 255 0
0.180843279730526 0.158147028567793 0.848672129971429 0 255 0
0.177170296182332 0.159345678635364 0.848118471056905 0 255 0
0.177452699625203 0.159360706472224 0.847725532179674 0 255 0
0.178723371284463 0.158738897117081 0.847508240275824 0 255 0
0.178070734149430 0.159463502281608 0.847059855961232 0 255 0
0.177527762292406 0.160023833691986 0.848067284355993 0 255 0
0.177546502430403 0.159305665025009 0.847586847419156 0 255 0
0.179166170144738 0.158240420331731 0.848542746581658 0 255 0
0.180305605657226 0.158225344214056 0.848474112517994 0 255 0
0.179392217299556 0.158325222526570 0.848330245700137 0 255 0
0.179340209374697 0.158172122540301 0.849129464290615 0 255 0
0.179102590611742 0.158271315087642 0.848484915730078 0 255 0
0.179293295771179 0.158117391214220 0.849031032286181 0 255 0
0.179262669280741 0.158198333682048 0.848932730271329 0 255 0
0.177144522847781 0.159789465222478 0.848362947935092 0 255 0
0.177209442537634 0.159615583978083 0.848232756245782 0 255 0
0.180652500993340 0.158627431341056 0.848189023590259 0 255 0
0.180652859610934 0.158628085887646 0.848183329141808 0 255 0
0.180684585241249 0.158238710588914 0.848443937388983 0 255 0
0.180585583643362 0.158611991365657 0.848127387659994 0 255 0
0.180614890955820 0.158599133201758 0.848152265888205 0 255 0
0.180548419121733 0.158584358511493 0.848092830663828 0 255 0
0.180707277958877 0.158191971653080 0.848494101750662 0 255 0
0.180635936173869 0.158545251875715 0.848161242386791 0 255 0
0.180560838045982 0.158488577186619 0.848096842855558 0 255 0
0.180921649511175 0.158199140572774 0.848749078341498 0 255 0
0.177897697191219 0.159684434795730 0.847416551775235 0 255 0
0.179901924681583 0.158019815079954 0.848912176339510 0 255 0
0.179316670605278 0.158521749455855 0.847975112455327 0 255 0
0.179322290580945 0.158059036742004 0.849087480994099 0 255 0
0.179256409384421 0.158180907763859 0.848898999529329 0 255 0
0.177570883850837 0.160042677870444 0.847715758572870 0 255 0
0.180622187500178 0.158634669359115 0.848289986083995 0 255 0
0.177101470143166 0.160005816575374 0.848440867108217 0 255 0
0.177192749494270 0.159289219578236 0.848018605174149 0 255 0
0.180559839633845 0.158289578136329 0.848330018110846 0 255 0
0.180324700048396 0.158256632504159 0.848415400335626 0 255 0
0.178941130699730 0.158269760962500 0.848513546369841 0 255 0
0.177850193001107 0.159888767529286 0.847574561632478 0 255 0
0.180044482537028 0.158246151875409 0.848463098276310 0 255 0
0.177711308394563 0.159394182928112 0.847420063916958 0 255 0
0.178040433085175 0.160301347182182 0.847537211381540 0 255 0
0.177181095206529 0.158952745711174 0.847820249538562 0 255 0
0.180635293202155 0.158268024972464 0.848382035703840 0 255 0
0.179732574164924 0.158467609663751 0.848027082816399 0 255 0
0.179542970346550 0.157922494182658 0.849208914303767 0 255 0
0.177258429866342 0.159691917002667 0.848300684924669 0 255 0
0.177091667872060 0.159447830536670 0.848230603112296 0 255 0
0.177582011514511 0.159770324632569 0.847899116062173 0 255 0
0.180707827183225 0.158741901538638 0.848205452375856 0 255 0
0.180799592310620 0.158160110283701 0.848559699903959 0 255 0
0.179098600751798 0.158412761061177 0.848160614769462 0 255 0
0.179486662073231 0.157919716660741 0.849222825696602 0 255 0
0.177480656509827 0.160105543827864 0.848060233964257 0 255 0
0.179201381181302 0.158322622509363 0.848757244385267 0 255 0
0.179230214977136 0.158190228926345 0.848800928178142 0 255 0
0.179512317206060 0.157906959929843 0.849240898200096 0 255 0
0.179355486295548 0.158170959925690 0.849140170967873 0 255 0
0.177392467673292 0.160076932634998 0.848200079455563 0 255 0
0.179487401806695 0.157921693572208 0.849205113343784 0 255 0
0.178823866701846 0.158310040089542 0.848434002104107 0 255 0
0.180869545149530 0.158309094388828 0.848434571194552 0 255 0
0.179783143186722 0.158071591856217 0.848803715462098 0 255 0
0.177572951408802 0.159970947825076 0.847959743104179 0 255 0
0.177101241579125 0.159866049060810 0.848454199148608 0 255 0
0.177460121472186 0.159775477415668 0.847938748176426 0 255 0
0.179244177083747 0.158584644865528 0.847791600131059 0 255 0
0.177479540791615 0.159407336905522 0.847804314893647 0 255 0
0.180623338910330 0.159150155331112 0.848217838161774 0 255 0
0.180723957248119 0.158229234135753 0.848484008443784 0 255 0
0.180517210795818 0.158218543077829 0.848469075347074 0 255 0
0.178577314279800 0.159053794424878 0.847004845230254 0 255 0
0.179599633358872 0.157929743856991 0.849175907208913 0 255 0
0.177787644623195 0.160205464696726 0.847733547619304 0 255 0
0.179567596870606 0.157920715857211 0.849199089805590 0 255 0
0.177221944666892 0.159906067838170 0.848363142955681 0 255 0
0.177065888174829 0.159882724204610 0.848469933723513 0 255 0
0.180039898799644 0.158287333814644 0.848391790418886 0 255 0
0.179316796275886 0.158210392383260 0.849142498096404 0 255 0
0.177320366492226 0.159076137443834 0.847684089094811 0 255 0
0.177054208129822 0.158792964060189 0.848037499444777 0 255 0
0.179563554953240 0.157904049551285 0.849233693781458 0 255 0
0.180761152394997 0.158108071511846 0.848624656540071 0 255 0
0.178594660581052 0.158508615106392 0.848018919691712 0 255 0
0.180548810622256 0.158704662589190 0.848098120604772 0 255 0
0.177438061009429 0.159468471694260 0.847841793566251 0 255 0
0.179335538479433 0.158097288162789 0.849167416179280 0 255 0
0.176879927722829 0.159203333643541 0.848350422983836 0 255 0
0.180640110756370 0.158186135251662 0.848522325020010 0 255 0
0.177324302140891 0.159715255976051 0.847980050869175 0 255 0
0.177885590924489 0.159605008312196 0.847345222753800 0 255 0
0.179949201248599 0.158008549755635 0.848969364883334 0 255 0
0.177648458223150 0.159493490419902 0.847581018525498 0 255 0
0.179862780509802 0.158037941738456 0.848908475572214 0 255 0
0.179498340890716 0.157898126809612 0.849259868503026 0 255 0
0.180660898043569 0.158668143198678 0.848204736193537 0 255 0
0.180838551931983 0.158139123575947 0.848579057746357 0 255 0
0.179408903332743 0.158139419141011 0.848744381456302 0 255 0
0.179654402632346 0.157917286364906 0.849198708725505 0 255 0
0.177254556240541 0.160084678399949 0.848173560560524 0 255 0
0.177982470077516 0.159688649276456 0.847243635853835 0 255 0
0.176955606719329 0.159267675540555 0.848314634863670 0 255 0
0.180515422432862 0.158540553921145 0.848057894997044 0 255 0
0.180679473496205 0.158112752362962 0.848632458901045 0 255 0
0.179830057493434 0.158384142476286 0.848183157727199 0 255 0
0.177311148374008 0.160046410424235 0.848196679173366 0 255 0
0.178072343969286 0.160153153087212 0.847562423200688 0 255 0
0.180701342308213 0.158218765438628 0.848444765445913 0 255 0
0.179601195630076 0.157907030581394 0.849238600490584 0 255 0
0.179602821808758 0.157908138745910 0.849239389595201 0 255 0
0.180556730511852 0.158625560105123 0.848102128717801 0 255 0
0.179234527023233 0.158220848067671 0.848856158277868 0 255 0
0.178078990137195 0.158265049213609 0.848676674871174 0 255 0
0.177038255127491 0.159829127910658 0.848598899240896 0 255 0
0.180372636484562 0.158902227184249 0.847886409166720 0 255 0
0.180489605804065 0.158473247400065 0.848033268296176 0 255 0
0.180720204650877 0.158122256440482 0.848636905345664 0 255 0
0.180033643511736 0.158008320425188 0.848915017998215 0 255 0
0.179713939591727 0.157921327388685 0.849184138360723 0 255 0
0.177293345773468 0.159476110119335 0.847876626587318 0 255 0
0.177332354154053 0.159324831282175 0.847842971414855 0 255 0
0.177353372259062 0.159273150495514 0.847809399712720 0 255 0
0.179338840416373 0.158186990747437 0.849221500764368 0 255 0
0.179327546187672 0.158604701304885 0.847759124305026 0 255 0
0.179341655574549 0.158134740451871 0.849219280844934 0 255 0
0.177884663399446 0.159605497722868 0.847344659989390 0 255 0
0.179165060982097 0.158675211404136 0.847599478462396 0 255 0
0.180598231339271 0.158517232009399 0.848131676306791 0 255 0
0.180879137173169 0.158192881312102 0.848528624435331 0 255 0
0.180517189000194 0.158089280909056 0.848721030666275 0 255 0
0.179199781305915 0.158211214410944 0.848753171941556 0 255 0
0.179340449387623 0.158108853290099 0.849205162294077 0 255 0
0.178970869261837 0.158292361317248 0.849019013899227 0 255 0
0.179320984819838 0.158109328486343 0.849115697185450 0 255 0
0.179355268795572 0.157976498355256 0.849208822749218 0 255 0
0.177336454498126 0.159811565263296 0.848189228883313 0 255 0
0.179633428967332 0.157891605858263 0.849252395332216 0 255 0
0.179303796800202 0.158054687463005 0.849056498277949 0 255 0
0.179313994295956 0.158056988948535 0.849060374466507 0 255 0
0.177234279043604 0.159981365081855 0.848401651867960 0 255 0
0.177518260633458 0.159123215375479 0.847470137316418 0 255 0
0.180637172473822 0.158225802312800 0.848458627423324 0 255 0
0.179680178540069 0.157922569879490 0.849190465913653 0 255 0
0.179602599894610 0.157897509859042 0.849254195125227 0 255 0
0.179675228252435 0.157910225578696 0.849215433309055 0 255 0
0.180577254167542 0.158571924453925 0.848106830636787 0 255 0
0.180657180834140 0.158490656592145 0.848173154938000 0 255 0
0.180592236365728 0.159352373325746 0.848333546082292 0 255 0
0.179501554471360 0.157979568749401 0.849279898815252 0 255 0
0.177870734014817 0.160065177624415 0.847464221380354 0 255 0
0.178947798435590 0.158860385537116 0.847601653282672 0 255 0
0.179895584651579 0.157995925814462 0.848951242947258 0 255 0
0.179662388573305 0.157923260293278 0.849203296964453 0 255 0
0.179228022023187 0.158189741689924 0.848799672401846 0 255 0
0.179734464734858 0.157917048947534 0.849187473446257 0 255 0
0.179314023647459 0.158244338820881 0.849144304240276 0 255 0
0.180670061626067 0.158249956948814 0.848455667209064 0 255 0
0.180657784103097 0.158195732937225 0.848507701672981 0 255 0
0.180542675308890 0.158128706144129 0.848659000791089 0 255 0
0.179550870515058 0.157926012090111 0.849066027820742 0 255 0
0.179974777058393 0.158237389324051 0.848483770030062 0 255 0
0.180121200660735 0.158235013023715 0.848463536462565 0 255 0
0.180852441490455 0.158137932327902 0.848646422301737 0 255 0
0.179727450938895 0.157913261909400 0.849183955824485 0 255 0
0.178869865615289 0.158550350454681 0.847906796391317 0 255 0
0.180022830481018 0.158234831672503 0.848467800039062 0 255 0
0.178050688833095 0.159641999622212 0.847103109284122 0 255 0
0.179885542917122 0.158115935751485 0.848727115510090 0 255 0
0.177949172802460 0.159790057095819 0.847413593765841 0 255 0
0.180524350935832 0.158183184708705 0.848480430354726 0 255 0
0.179676143714627 0.157918446595301 0.849187137911048 0 255 0
0.180557086782786 0.158624981647471 0.848111121374852 0 255 0
0.180560776449361 0.158489422122898 0.848107725933984 0 255 0
0.179651777910257 0.157902074087243 0.849228929740912 0 255 0
0.180666056917825 0.158532217395246 0.848179489809914 0 255 0
0.180562732013324 0.159019093178418 0.848190290758676 0 255 0
0.177760622087283 0.159316242258071 0.848477654964618 0 255 0
0.180029242421621 0.158160956923098 0.848564060958591 0 255 0
0.179669083237996 0.159077173367832 0.848143186877216 0 255 0
0.177785260857201 0.160092741926171 0.847687389190267 0 255 0
0.180881645986371 0.158302623875572 0.848435691015817 0 255 0
0.179311036056501 0.158159082722056 0.849089718111012 0 255 0
0.180517635018210 0.158218139636579 0.848470737968447 0 255 0
0.179392239163526 0.157928214023973 0.849214656160950 0 255 0
0.179799134309970 0.158051611706581 0.848875042212388 0 255 0
0.179360711619675 0.158293406515654 0.848420528580214 0 255 0
0.180664312106723 0.158409194812012 0.848182506994773 0 255 0
0.179660591523163 0.157897627548938 0.849246058304422 0 255 0
0.177793312395420 0.158745589052767 0.847682172108955 0 255 0
0.179510619160542 0.157903465502023 0.849261461323137 0 255 0
0.180233757039622 0.158050988851215 0.848876516291611 0 255 0
0.180708501304141 0.158128251237896 0.848467098343525 0 255 0
0.180354942313065 0.158212742066126 0.848487800758464 0 255 0
0.180336310570791 0.158206094655530 0.848505936270579 0 255 0
0.179340175979557 0.157960044970642 0.849173538251601 0 255 0
0.178827653555149 0.158766642091473 0.847439213302590 0 255 0
0.179679232674372 0.157912976637092 0.849217364903077 0 255 0
0.179632608062128 0.158270261351894 0.848444182412761 0 255 0
0.177174062348885 0.159896010609969 0.848440842244407 0 255 0
0.179661815660924 0.157922375294667 0.849163744310031 0 255 0
0.179146993638209 0.158392282194196 0.848743683424549 0 255 0
0.179753336792717 0.157923356302877 0.849160587690831 0 255 0
0.180506827279612 0.158108630023611 0.848728876006019 0 255 0
0.179788220040448 0.157923381060168 0.849175551555509 0 255 0
0.179739479117284 0.158061209075690 0.848852658641323 0 255 0
0.180092119980761 0.158010421592810 0.848950771465552 0 255 0
0.180231870164698 0.158058378759868 0.848877496196586 0 255 0
0.179581096462461 0.157904370759492 0.849251320980853 0 255 0
0.179839181328115 0.158024298176839 0.848885546344897 0 255 0
0.180782717107041 0.158357439460330 0.848267498588750 0 255 0
0.179192173522752 0.158344631565138 0.848337395681091 0 255 0
0.179709493980569 0.157926973930977 0.849167049039914 0 255 0
0.179253941435308 0.158212897399966 0.848885359888900 0 255 0
0.179841048570635 0.157920913315581 0.849152582141974 0 255 0
0.179952814539508 0.158293848268435 0.848355258366706 0 255 0
0.179673442154181 0.157909457907513 0.849214827837064 0 255 0
0.179815455825718 0.157933949029023 0.849154114566402 0 255 0
0.179782508396256 0.157927861995103 0.849184387807683 0 255 0
0.180378339586063 0.158164894363490 0.848519119910424 0 255 0
0.179634404596724 0.158270752297395 0.848445995297074 0 255 0
0.179729734486746 0.157906808313709 0.849214018955586 0 255 0
0.179935753984716 0.158001364110043 0.848904891739427 0 255 0
0.179605112337111 0.157925497193422 0.849208358367574 0 255 0
0.180228554072381 0.158050969077838 0.848868592646104 0 255 0
0.180315663517527 0.158079622261515 0.848785050489105 0 255 0
0.179709497427586 0.157907187390084 0.849211172605973 0 255 0
0.179839152493097 0.157909967732905 0.849139233990344 0 255 0
0.180030608448534 0.157981529175985 0.849025022755338 0 255 0
0.179839294726799 0.157920730414709 0.849170644554537 0 255 0
0.180627766241430 0.158502682412958 0.848154561423445 0 255 0
0.179770130347479 0.157908317522761 0.849201606510372 0 255 0
0.180623829829719 0.159151840951681 0.848215595572081 0 255 0
0.179852082645240 0.157911517799643 0.849181646729980 0 255 0
0.180605429823521 0.158436493903912 0.848133819566028 0 255 0
0.177479709233633 0.159523735350628 0.847817245105305 0 255 0
0.179852898275050 0.157939230417908 0.849209076905473 0 255 0
0.178952576685499 0.158352324064428 0.848605687319401 0 255 0
0.177770250802852 0.159771621771368 0.847532711500808 0 255 0
0.179205742267795 0.158503554294842 0.847975127264370 0 255 0
0.180564090100526 0.158246594590682 0.848433682638005 0 255 0
0.180632013361119 0.158682793072956 0.848164325169427 0 255 0
0.178857011050946 0.158283161323641 0.848480893155449 0 255 0
0.179759365565256 0.157898286004024 0.849232834623555 0 255 0
0.180191009792164 0.158049002120855 0.848887833058896 0 255 0
0.179273942992782 0.158166034981465 0.848955153001404 0 255 0
0.179820022842642 0.157936051026025 0.849156296417756 0 255 0
0.179718938185292 0.157891948470745 0.849239205430148 0 255 0
0.179880190980707 0.158237906921590 0.848480494182042 0 255 0
0.177796119580194 0.158429551775098 0.848502963433779 0 255 0
0.177246039103543 0.159488339629224 0.848032741863743 0 255 0
0.180005063988190 0.157997095069855 0.848969790336971 0 255 0
0.177553436308983 0.159428872047050 0.847608088024807 0 255 0
0.177401220724988 0.159094245891833 0.847614645581228 0 255 0
0.179890620192348 0.158005913384281 0.848978433313322 0 255 0
0.180685257865562 0.158204095834969 0.848482603196169 0 255 0
0.180390245114154 0.158229583397216 0.848450968076061 0 255 0
0.179572503156859 0.158532069435012 0.847877167304977 0 255 0
0.179922970061490 0.158035735478571 0.848772499624650 0 255 0
0.180408939860498 0.158098339615360 0.848607381778256 0 255 0
0.180582094321989 0.158745780675148 0.848131330551871 0 255 0
0.179828169955724 0.157921242152440 0.849248398207259 0 255 0
0.179997035619072 0.158107746452125 0.848703850527172 0 255 0
0.179905007009428 0.158072354222232 0.848740226149496 0 255 0
0.178336549933750 0.158477002982155 0.848118869716662 0 255 0
0.178597767341424 0.158389912966860 0.848591319826972 0 255 0
0.179653298247982 0.157916397045717 0.849197798465615 0 255 0
0.180803527233465 0.159030770168623 0.848390408880792 0 255 0
0.180171119230476 0.158217432990296 0.848498410909181 0 255 0
0.180598959260632 0.159286010197901 0.848274109940239 0 255 0
0.180484824031784 0.158492781592949 0.848023948252085 0 255 0
0.180652271335424 0.158220314448334 0.848471304520359 0 255 0
0.179900705702392 0.158251316528305 0.848418093586622 0 255 0
0.177012926992172 0.159119907946719 0.848324993309944 0 255 0
0.177300219680073 0.159078070922633 0.847671761015760 0 255 0
0.180585044698174 0.158230613141344 0.848457886309406 0 255 0
0.178822827681500 0.158715289437572 0.847671831026725 0 255 0
0.177375769556777 0.160136430120285 0.847602068172502 0 255 0
0.178944159014845 0.158419286966793 0.848169987563668 0 255 0
0.180512505989607 0.158234891595984 0.848445328424739 0 255 0
0.180584847928299 0.158230106278894 0.848455687729230 0 255 0
0.179690473386269 0.159287411983736 0.848278642439595 0 255 0
0.176959482741011 0.159863798735910 0.848576797915030 0 255 0
0.177834212845329 0.159996953078514 0.847642527974041 0 255 0
0.177044720874402 0.159742367328660 0.848418625108761 0 255 0
0.179121456045268 0.158519371657459 0.847981935349952 0 255 0
0.179665527735727 0.157923077511062 0.849202693054019 0 255 0
0.180350173944871 0.158235249063574 0.848449211905401 0 255 0
0.179813255634884 0.158268358365618 0.848452753633544 0 255 0
0.180644600267225 0.158584700678558 0.848183344001699 0 255 0
0.176981593349826 0.159386080336847 0.848300069476476 0 255 0
0.178380669682128 0.158385302221806 0.848298196520263 0 255 0
0.179296940876483 0.158254496454773 0.849062812051801 0 255 0
0.180380941955089 0.158167211061355 0.848524767799184 0 255 0
0.180524606276261 0.159184091236276 0.848152986526389 0 255 0
0.176906610576210 0.159217086079614 0.848289473863717 0 255 0
0.180350022034263 0.158235038594536 0.848448997073468 0 255 0
0.180682356630956 0.158491331486790 0.848199249612494 0 255 0
0.180069036317807 0.158268294885400 0.848411550159845 0 255 0
0.180082992001877 0.158257778497092 0.848442569097682 0 255 0
0.179925975929267 0.158104385912671 0.848610098521558 0 255 0
0.180374177772608 0.158134434163458 0.848500464102497 0 255 0
0.180577653645119 0.158570364218576 0.848123397077520 0 255 0
0.180036860545947 0.158051844944902 0.848826708406234 0 255 0
0.180426418988035 0.158204868112840 0.848469508316092 0 255 0
0.180526691310517 0.158206348482430 0.848469557377901 0 255 0
0.180714387727815 0.158231468877768 0.848441173869695 0 255 0
0.180232515756737 0.158251771519999 0.848428884411037 0 255 0
0.180409284851663 0.158261961139905 0.848374768848069 0 255 0
0.180122077608602 0.158225638412010 0.848490278519441 0 255 0
0.180699574541820 0.158574112296707 0.848222124415099 0 255 0
0.180492951534370 0.158174340641873 0.848634070605618 0 255 0
0.180180691137501 0.158669226895721 0.847606779811028 0 255 0
0.180472149226164 0.158270894905665 0.848360430858002 0 255 0
0.179151702802871 0.158258484569059 0.848515337696774 0 255 0
0.179381722743235 0.158251245335997 0.848489428131326 0 255 0
0.179262019308049 0.158151527950143 0.848924765161628 0 255 0
0.178487287705218 0.158363488969826 0.848356525849811 0 255 0
0.179698778076906 0.157913171636959 0.849201840370236 0 255 0
0.180244902255508 0.158242227796197 0.848420603171218 0 255 0
0.180390512466195 0.158184432167885 0.848569842493898 0 255 0
0.180523301272390 0.158169074565407 0.848579104934388 0 255 0
0.180531820931551 0.158237785559614 0.848436576140895 0 255 0
0.180517923135231 0.158217494640374 0.848470523130109 0 255 0
0.179007405635597 0.158239231925441 0.848581255305536 0 255 0
0.177343703649821 0.159812604907999 0.848194359730949 0 255 0
0.179697237922410 0.157902829475934 0.849225754480898 0 255 0
0.177699150623253 0.159398079069067 0.847412781383228 0 255 0
0.180716915167597 0.158657301132824 0.848243358814741 0 255 0
0.180414828389149 0.158192639074146 0.848664067241720 0 255 0
0.177665631287625 0.158343041425784 0.848840002317503 0 255 0
0.180587686135916 0.158245710290855 0.848430426034992 0 255 0
0.176915270182537 0.159949633610065 0.848527582217269 0 255 0
0.177689714344673 0.158501661566884 0.848829554726720 0 255 0
0.179759938584130 0.157898717063491 0.849233026524530 0 255 0
0.179725580087529 0.157896082029245 0.849241324636074 0 255 0
0.180250135468042 0.158107726991546 0.848692187394427 0 255 0
0.178348168668293 0.159602389325037 0.847157346963267 0 255 0
0.176955555841570 0.159708102664835 0.848551763287612 0 255 0
0.179127892953362 0.158423370703050 0.848150968435975 0 255 0
0.179622885230161 0.158280536039287 0.848411812472243 0 255 0
0.179498498656173 0.158384194996891 0.848245580043795 0 255 0
0.180526207135799 0.158517483892566 0.848057405952980 0 255 0
0.177584770277782 0.158828390396582 0.849007213477438 0 255 0
0.177200339546544 0.158263182500344 0.848841011468351 0 255 0
0.177359595432651 0.159051471493468 0.849119405822381 0 255 0
0.177623441428314 0.158815085946037 0.848959754385099 0 255 0
0.179771747924642 0.158259965782742 0.848460287213991 0 255 0
0.180505881838698 0.158556907829918 0.848043251671492 0 255 0
0.176795034694969 0.158942739321402 0.848040950638504 0 255 0
0.179338096904539 0.158134057327879 0.849219107136647 0 255 0
0.179963572315920 0.158313049615964 0.848330376805429 0 255 0
0.177406503545808 0.159125714627359 0.849168603361977 0 255 0
0.177394478515918 0.159184370865557 0.849180658606304 0 255 0
0.179944401267230 0.158053987453770 0.848858273410733 0 255 0
0.177360598106403 0.158191482391789 0.848894224403605 0 255 0
0.180523186804665 0.158638869552201 0.848064247264920 0 255 0
0.177517413135945 0.158578660574728 0.849025755900985 0 255 0
0.180009214958809 0.158177593732943 0.848544819371649 0 255 0
0.180290427978181 0.158236629835537 0.848443225073304 0 255 0
0.179345183033796 0.158096297335561 0.849236882041836 0 255 0
0.176862754826031 0.158370842809813 0.848842638113517 0 255 0
0.178763279268571 0.158335163405991 0.848495771636561 0 255 0
0.179332160124747 0.158180488943509 0.849224050966753 0 255 0
0.180584719792198 0.158491173119617 0.848115711721872 0 255 0
0.178416931346706 0.158793934501430 0.847435233424968 0 255 0
0.177502872626849 0.159083891987457 0.849234341527991 0 255 0
0.176977573873354 0.159213514433158 0.848200920502728 0 255 0
0.179316724179319 0.158081694279541 0.849143783688173 0 255 0
0.179524486219193 0.158401235740743 0.848148385900079 0 255 0
0.177541075529546 0.159137867998069 0.849282566317416 0 255 0
0.180429735526353 0.158261033777711 0.848375588114417 0 255 0
0.179219332733629 0.158373825295971 0.848774496857293 0 255 0
0.180514994084602 0.158540200890311 0.848046335070661 0 255 0
0.179343063639003 0.157970969555894 0.849235908311129 0 255 0
0.179353745196379 0.157940333046395 0.849256095935516 0 255 0
0.179388461233751 0.157908132058072 0.849231754404108 0 255 0
0.177591888920427 0.158798802893583 0.849143554669444 0 255 0
0.177450498655485 0.159225183552383 0.849264049824832 0 255 0
0.180674803235664 0.158571892238880 0.848201173168330 0 255 0
0.179060885965336 0.158403212050408 0.848203075257280 0 255 0
0.180393254759606 0.158209951430610 0.848478735543212 0 255 0
0.179781450512396 0.158220692385171 0.848534312871493 0 255 0
0.177625578245196 0.158836980674563 0.848930761493523 0 255 0
0.180546946799639 0.158462826624915 0.848075426295471 0 255 0
0.179433078235889 0.157900827167417 0.849270937794335 0 255 0
0.180559869068926 0.158271233085853 0.848341926218566 0 255 0
0.177353869936166 0.158163814494387 0.848959061551988 0 255 0
0.179928275291800 0.158317583203476 0.848314319984806 0 255 0
0.179349948954455 0.158137461084354 0.849280963569113 0 255 0
0.180057686175828 0.158248817495460 0.848438731515153 0 255 0
0.180057577454282 0.158248733347101 0.848438610283409 0 255 0
0.179456937494799 0.158337270018156 0.848314474675920 0 255 0
0.179761817384267 0.158067286141728 0.848841160775340 0 255 0
0.179938748281931 0.158315652288274 0.848311216120056 0 255 0
0.179366400258000 0.158049957617385 0.849282579267985 0 255 0
0.179349969377370 0.158132469178800 0.849266536353459 0 255 0
0.179349512954068 0.158049528694260 0.849233205150700 0 255 0
0.179292770463348 0.158080417113480 0.849051523287527 0 255 0
