ply                 
format ascii 1.0    
element vertex 446
property float x    
property float y    
property float z    
property uchar red  
property uchar green
property uchar blue 
end_header          
-0.032051584445405 -0.489573294215793 1.200242339111729 0 255 0
0.058190468673842 -0.503423653314265 1.238585758368005 0 255 0
0.112364176772568 -0.494066620493205 1.287240859517484 0 255 0
0.125069970144922 -0.488511180078823 1.289883441656410 0 255 0
0.029633214168612 -0.420944539511855 1.228884051221264 0 255 0
0.035447755032477 -0.405139864613067 1.212656669330623 0 255 0
0.044621302802256 -0.399393786748740 1.210498973837852 0 255 0
0.146381751942977 -0.346261365441790 1.214895820065198 0 255 0
0.189084251859078 -0.328914417460109 1.248413703358400 0 255 0
-0.214824234075995 -0.301146264565769 1.300381384343605 0 255 0
0.084215684877845 -0.243583745744342 1.083347487774730 0 255 0
-0.033497761094946 -0.235094169392807 1.064997578191458 0 255 0
0.137478985209865 -0.239500685346198 1.112231059391267 0 255 0
0.084274250958010 -0.211671136020569 1.050879196878802 0 255 0
0.211058089089286 -0.221129227984365 1.185014140518356 0 255 0
0.003999512248646 -0.174557413324149 1.035248511006854 0 255 0
-0.041485721637231 -0.171478804634286 1.026677541316307 0 255 0
0.052737204282575 -0.170374457751391 1.024104985638201 0 255 0
-0.017889598884530 -0.170232306056021 1.030093686416462 0 255 0
0.120997871440892 -0.150997075960146 1.024298866063475 0 255 0
-0.065600515903715 -0.144031719745860 1.015389830900485 0 255 0
0.066192270814219 -0.135513812301425 1.004532718267308 0 255 0
0.037501912188999 -0.134007767923093 1.014369760288965 0 255 0
0.074240278306211 -0.132491688438842 1.006733492113744 0 255 0
0.332882153213292 -0.190747622753420 1.459548895366732 0 255 0
-0.152622047771055 -0.135999072585860 1.068157117429653 0 255 0
0.152836874029571 -0.133463809762189 1.046013365634226 0 255 0
-0.105612275752212 -0.124917726011524 1.038783182991378 0 255 0
0.350793880195892 -0.174507554862532 1.445521517690620 0 255 0
-0.147608430476980 -0.121925149235960 1.062606484847741 0 255 0
0.080822648431166 -0.115297834045189 1.028447063385120 0 255 0
0.191618372631147 -0.114402329912295 1.081340241268192 0 255 0
-0.164386545470286 -0.115269935045615 1.096122024759321 0 255 0
0.367874187023976 -0.140347304066816 1.434473622183491 0 255 0
-0.098044676191982 -0.100169851954447 1.048945213161458 0 255 0
0.121588044793409 -0.097565081659167 1.040222065353467 0 255 0
0.201715127426526 -0.103842889115804 1.089070648611030 0 255 0
0.109478695250784 -0.097432253796211 1.037756159967841 0 255 0
0.321364309887922 -0.131216249372687 1.416718179356011 0 255 0
0.205928054627835 -0.089434609493098 1.086342686275818 0 255 0
0.230637254339019 -0.086601310877592 1.126045635198142 0 255 0
0.189979732405166 -0.080903979089494 1.072956239359760 0 255 0
0.309936223860259 -0.100168872829058 1.377294218504132 0 255 0
-0.126284552608354 -0.063724230162353 1.052948851285535 0 255 0
0.071815433673013 -0.058018750209552 1.018701057278712 0 255 0
0.030702963434211 -0.044123420509321 0.925914724505295 0 255 0
0.349443908197779 -0.028970208995571 1.347809373541273 0 255 0
0.345976405765398 -0.011258078826038 1.339303538184603 0 255 0
0.055601719899794 -0.006351994652812 0.938232204154074 0 255 0
0.244763201017872 -0.007363760604079 1.108647515415383 0 255 0
0.129675770005551 0.020014493841919 1.012213958235959 0 255 0
0.129653428909913 0.019941601938142 1.012096736622065 0 255 0
-0.086817034784706 0.023136718954276 0.988945294719974 0 255 0
0.126064326552800 0.027291078383012 1.009995958159376 0 255 0
-0.027700612892119 0.028180371038683 0.893451005217552 0 255 0
0.407746167290624 0.061752569773797 1.433688629348482 0 255 0
0.090958833023413 0.074444250495210 0.978144871870902 0 255 0
0.360974999269138 0.102172556000535 1.341170309798434 0 255 0
0.341202285550354 0.106042077061307 1.286672590722312 0 255 0
-0.089441011957247 0.107677078513822 0.953474149297155 0 255 0
-0.187366900635804 0.137400544681815 1.033230175759878 0 255 0
-0.062393791748707 0.124437542190574 0.939257371013844 0 255 0
1.978604172569230 0.686362611519088 4.809147726335715 0 255 0
0.018476984632447 0.144795799726526 0.917230214572280 0 255 0
1.604469343723165 0.663435529118996 3.717148151995261 0 255 0
1.566663981409426 0.731647057678209 3.648879270590518 0 255 0
1.573768514095432 0.734369558980520 3.664688029405129 0 255 0
-0.003659790761531 0.202167117472523 0.919518608668232 0 255 0
-0.279897859658723 0.285231265608645 1.152624347443955 0 255 0
-0.194785703278511 0.272337527730351 1.042363443398090 0 255 0
-0.822349075868478 0.705294559125715 2.394021525408649 0 255 0
0.050712630686129 -0.490731315903289 1.225890207771277 0 255 0
0.016467771041168 -0.496344989664834 1.249020668728258 0 255 0
0.067322140126298 -0.488817792384236 1.236826669227207 0 255 0
-0.092851546033302 -0.483148684047964 1.244425189338902 0 255 0
-0.111026927031071 -0.468008920562103 1.239889654094200 0 255 0
0.123645401070928 -0.480324744585391 1.293831850924543 0 255 0
-0.016042543401641 -0.209434943938865 1.048031694939821 0 255 0
-0.016031749998628 -0.209445892801108 1.047806671839366 0 255 0
0.063527831044100 -0.205992730580577 1.053414281216796 0 255 0
-0.023919903383052 -0.199200566465856 1.047267608979852 0 255 0
-0.082133758511533 -0.192027041012062 1.036855473751390 0 255 0
0.068596785678336 -0.187383342275571 1.029209119130379 0 255 0
0.103228280845338 -0.190681588166070 1.045080506983291 0 255 0
-0.078107961683032 -0.178994332201488 1.031846901467218 0 255 0
-0.034420967841666 -0.172263137285684 1.027178137908318 0 255 0
0.046753424015265 -0.162900872689222 1.021189034388724 0 255 0
0.315955176353970 -0.235739955996536 1.487626903622637 0 255 0
-0.129478488223285 -0.155509123199147 1.044096815463816 0 255 0
0.031363521409573 -0.150937465015727 1.019439945696282 0 255 0
0.031350713594085 -0.151155577610869 1.020208888054446 0 255 0
-0.022464110477870 -0.145320083041003 1.010260069358234 0 255 0
0.139666033899340 -0.144968760242539 1.037291544208272 0 255 0
-0.027034989329554 -0.134855606743664 1.007807424307814 0 255 0
0.139471172788490 -0.127739671449161 1.032744191191045 0 255 0
0.349432084905213 -0.119084050787699 1.414701667414134 0 255 0
0.051706205876724 -0.076692220572105 1.007136089113434 0 255 0
0.324150258064150 -0.092633015751162 1.368588701019515 0 255 0
0.192022787809214 -0.071620668181478 1.077295274308952 0 255 0
-0.080243514201918 -0.063151557514249 1.030319155996940 0 255 0
0.056351092241317 -0.046635334279652 0.983851630770443 0 255 0
-0.052642721528423 -0.018011326497246 0.961317410448216 0 255 0
0.054752855062724 -0.013211661278025 0.942684322578224 0 255 0
-0.062682723197344 0.001937583297581 0.946664577218322 0 255 0
0.097939474850975 0.005374283163594 0.995256925461134 0 255 0
0.245032962775444 0.015782286776216 1.103911713512816 0 255 0
0.102309447198952 0.042442888564851 0.991319190101358 0 255 0
-0.071750106641991 0.046165815397858 0.975026061516261 0 255 0
-0.064151116252024 0.049419330414831 0.966286973988703 0 255 0
0.134582641574024 0.052531738851720 1.008260865340037 0 255 0
-0.153816246067731 0.063390482874075 1.019600677386801 0 255 0
0.452110978700680 0.119866966234948 1.504904332322698 0 255 0
0.387301429083843 0.113958890359336 1.359868789445815 0 255 0
-0.197857248221367 0.086961296267365 1.055367794778508 0 255 0
0.136001766530578 0.086122612922847 1.005673921166769 0 255 0
-0.077376064444788 0.090494535987340 0.954474415224361 0 255 0
-0.117739776142001 0.106743876303523 0.966057030761083 0 255 0
-0.204824222817659 0.120938434675996 1.060919359533736 0 255 0
1.035671620301280 0.416554367846663 3.095964140690180 0 255 0
-0.062074863602180 0.129530657434253 0.927855264186542 0 255 0
-0.325517010078169 0.180419352049901 1.258779850120001 0 255 0
-0.041166826226672 0.132802595516010 0.914270113863363 0 255 0
-0.056425884290818 0.136156416040085 0.921375290657983 0 255 0
1.113209059120622 0.506419263605625 3.176799389567832 0 255 0
-0.101369269777543 0.166012743045266 0.944628938574289 0 255 0
1.563900986032200 0.701063714283863 3.818735014800915 0 255 0
-0.132443461801871 0.173908464519007 0.963470294149168 0 255 0
1.584645347199177 0.685432102566675 3.707381974151162 0 255 0
0.204102715309235 0.219033649325920 1.061352107170234 0 255 0
1.599480209393036 0.774764333002813 3.646679804558057 0 255 0
0.302167279641421 0.257425440932650 1.162509036848317 0 255 0
0.199769352419758 0.244288188025917 1.062200178974316 0 255 0
0.366822671802540 0.292058975473945 1.263615176423037 0 255 0
0.021141459193205 0.221696262887075 0.909743537388418 0 255 0
-0.274149852538904 0.290428377156605 1.141914325343307 0 255 0
0.021187778795909 -0.445989449258020 1.249689568219113 0 255 0
-0.010638729020396 -0.453427253003572 1.283216871632524 0 255 0
-0.160769828379450 -0.466342953298333 1.328854956785436 0 255 0
-0.180885490573435 -0.357357357114153 1.291118189721319 0 255 0
0.077898728458138 -0.255067760984633 1.089654797814275 0 255 0
-0.024837878844648 -0.220605755907202 1.057286840763183 0 255 0
-0.030959804811199 -0.186705008669488 1.036336782328956 0 255 0
-0.104968595507202 -0.181088877051039 1.048967602571036 0 255 0
-0.102397346840427 -0.164587858040898 1.031752769757925 0 255 0
0.069186358912098 -0.150682366179764 1.009239878379835 0 255 0
0.325394518028178 -0.222148055571537 1.473826662211177 0 255 0
-0.105463753975278 -0.153642998044066 1.029090908469945 0 255 0
-0.275828204858291 -0.176229656136418 1.330058524329173 0 255 0
-0.256432823205885 -0.160080631159277 1.285574857237707 0 255 0
0.191665422594827 -0.127517297999714 1.082559985341243 0 255 0
-0.163083673278590 -0.124959284281158 1.083264762624626 0 255 0
-0.173868532116308 -0.114737615620747 1.096745029645580 0 255 0
0.139916853337261 -0.087229130996013 1.051320800777820 0 255 0
0.041576146288833 -0.068749861705759 0.966123496735306 0 255 0
-0.078757320809948 -0.072472917735947 1.033970633371529 0 255 0
-0.274926298847637 -0.078122381086778 1.280289288106112 0 255 0
0.361332897233398 -0.083201356762260 1.402590412342159 0 255 0
0.168443109864430 -0.053261993956045 1.052992085148122 0 255 0
0.084174975717938 -0.048165047085781 1.011432626366158 0 255 0
0.090437290211032 -0.038826796471507 1.017109821736837 0 255 0
0.107881466210294 -0.025447759295760 1.013955917074181 0 255 0
0.067545839385368 -0.018707798292618 0.978942096802351 0 255 0
-0.191868854421294 -0.008811321454565 1.060138208653670 0 255 0
0.234131288574477 -0.008719832154459 1.103789867157696 0 255 0
-0.152546418202905 0.034377467867268 1.025367417659930 0 255 0
-0.087233807726804 0.049313047105896 0.972696289256692 0 255 0
-0.106312218522144 0.063991430922296 0.979217151275259 0 255 0
0.381050308790475 0.098646447910185 1.359320299056640 0 255 0
-0.169597360251416 0.076099868563069 1.030649585905168 0 255 0
-0.320387971819537 0.101142376550361 1.290205237374733 0 255 0
0.115453318116646 0.107784242408690 0.987539343634849 0 255 0
-0.107614709639984 0.108904786197241 0.961473110925054 0 255 0
-0.073342702865107 0.106014248813694 0.944700373363247 0 255 0
-0.020261081431007 0.106834521872485 0.927179423003006 0 255 0
-0.308120312439137 0.152087872035803 1.247096461598133 0 255 0
-0.072364593267660 0.180689122215810 0.937908332074083 0 255 0
-0.220349629368977 0.218601085656714 1.071447967019915 0 255 0
0.326015856828316 0.267662469486559 1.202404767690717 0 255 0
-0.278660507686952 0.256618449466530 1.150650716364948 0 255 0
-0.286220163493423 0.273588435148287 1.154847298203827 0 255 0
-0.244759384985873 0.271819352813212 1.094594498551474 0 255 0
-0.071161744014865 0.231172987639824 0.904022704776057 0 255 0
-0.099477509913544 0.237596739501035 0.921070032080894 0 255 0
-0.212327315837409 0.279397073599245 1.046519193570996 0 255 0
-0.002536204458303 -0.405975596949032 1.215372109862313 0 255 0
-0.057315601150615 -0.378431395292706 1.196486493100318 0 255 0
0.041112522591338 -0.263453755670116 1.087100176094273 0 255 0
0.086403292816744 -0.229214846608637 1.077026590029933 0 255 0
0.012930417092801 -0.200794065251072 1.046289426918481 0 255 0
-0.108714475489762 -0.196657531617378 1.059867211013665 0 255 0
0.040034416884789 -0.186412947871836 1.031890967100584 0 255 0
0.058103224591844 -0.173443851688373 1.022059284213301 0 255 0
-0.088765949057298 -0.156346335500138 1.027277770787574 0 255 0
0.166331396576730 -0.150826498411668 1.066540714787843 0 255 0
-0.034771896647207 -0.143310436732889 1.015136718119664 0 255 0
-0.062498784651376 -0.133740949162728 1.016754313474171 0 255 0
0.205279521376647 -0.087482002414253 1.091242230447882 0 255 0
-0.112292766827159 -0.083622510112464 1.056436853002257 0 255 0
-0.050022960640478 -0.075174321591203 1.002911075703347 0 255 0
-0.096161480112972 -0.075019318773482 1.040360587746325 0 255 0
-0.078418377212803 -0.073758082255676 1.036984000247134 0 255 0
-0.172110466243105 -0.075275314376824 1.095239302933706 0 255 0
0.221920791183014 -0.073135841435680 1.113415736051928 0 255 0
-0.133046703151647 -0.067382979323701 1.061188257011177 0 255 0
-0.064307735813202 0.018205538839736 0.946236731124216 0 255 0
0.162014474781252 0.054655147871855 1.024851780379684 0 255 0
0.417638057138512 0.085831676120789 1.462395745289607 0 255 0
0.295172267569085 0.101876979333616 1.175178461998823 0 255 0
-0.098600230714847 0.093709802586385 0.962251820114880 0 255 0
-0.249904874498299 0.163375779762547 1.116644060785989 0 255 0
-0.303967569636523 0.213573412746601 1.214567006370968 0 255 0
-0.106802933195395 0.191029400407034 0.945503661095578 0 255 0
-0.201524059174315 0.213734802454170 1.047534478777030 0 255 0
-0.100147622415246 0.200890094368587 0.936257151898974 0 255 0
-0.190796653858178 0.232594458261684 1.036515246322000 0 255 0
-0.218182401715353 0.251786377344767 1.061397720701697 0 255 0
-0.034921828044695 -0.381599837633068 1.189818702146794 0 255 0
0.097629435902300 -0.362912854177670 1.190732893831851 0 255 0
0.019320227451473 -0.254977623334011 1.076434713378298 0 255 0
0.205879928478596 -0.287407293252097 1.235499099870519 0 255 0
-0.214698813773190 -0.278078646165423 1.274117290247607 0 255 0
0.080320488375703 -0.204731145513557 1.052306159834506 0 255 0
-0.087568018071868 -0.123699342461469 1.034436237445904 0 255 0
-0.189053631317679 -0.107162499952648 1.133362404653764 0 255 0
0.179397142637897 -0.066940813605507 1.064652086109285 0 255 0
0.123695226529961 -0.038615327418945 1.029565276189579 0 255 0
0.130519892177713 -0.021365779485738 1.019607473736918 0 255 0
0.057655767722687 0.000826664702652 0.941960000785682 0 255 0
0.082936059562957 0.012716618501445 0.973493550584597 0 255 0
-0.027247986479250 0.018135326843460 0.893247914308195 0 255 0
0.045687134387552 0.045825106043313 0.945538412483180 0 255 0
0.090085289014441 0.057039721099954 0.986346171677636 0 255 0
0.447268878135466 0.150108481671456 1.464764244880723 0 255 0
1.127923090555425 0.492563755927868 3.169341685752570 0 255 0
-0.029924148055498 0.143913201353952 0.915507439463041 0 255 0
-0.088556275934268 0.171327394847527 0.946140457466110 0 255 0
-0.033454654853059 0.225373795394157 0.897013665968056 0 255 0
0.061748252402968 -0.221017689084668 1.059368856307679 0 255 0
-0.255846083246066 -0.218965108821472 1.315591890767595 0 255 0
-0.049313126561432 -0.157153795305947 1.018075626106994 0 255 0
-0.082170671195088 -0.139227728275881 1.019548543151617 0 255 0
-0.134743820079894 -0.132832282989584 1.049850473410335 0 255 0
-0.088816043540365 -0.004857063783245 0.977505135796955 0 255 0
0.286894083350623 0.001443123339897 1.198464593548144 0 255 0
-0.047855101482259 0.090578942490163 0.933045110090331 0 255 0
0.101972450879344 0.100842797079834 0.976161740513584 0 255 0
0.010160724930892 0.100344292230643 0.924851757789985 0 255 0
-0.066945847214660 0.120377516765057 0.942204976943290 0 255 0
-0.032333886689741 0.126160861171184 0.922211777167387 0 255 0
-0.105597444678679 0.134887545892046 0.956866484349689 0 255 0
1.043196092233418 0.474026151463857 3.108276654887985 0 255 0
0.341676757899083 0.232553407298321 1.243914527702711 0 255 0
-0.158713136315737 0.229100515092483 0.982065530562947 0 255 0
-0.151316453394477 -0.428390240610071 1.351278625711453 0 255 0
-0.037556989455818 -0.191880898744539 1.043479085821505 0 255 0
-0.053284725493457 -0.158334831415249 1.018813606183143 0 255 0
-0.138328836319975 -0.074414789980630 1.053519877584460 0 255 0
-0.227471362810549 0.078298773328125 1.102603272061694 0 255 0
-0.090322811345896 0.148864256672082 0.951579349321355 0 255 0
0.332309957833361 0.195353397657111 1.241513333379862 0 255 0
-0.123502876159907 -0.362310597404568 1.232454472677482 0 255 0
0.083665111496913 0.026404670916274 0.973974884508736 0 255 0
-0.292893691469480 0.089053143661132 1.223857913618406 0 255 0
-0.117909969226607 0.101982711764647 0.986300819293160 0 255 0
0.173663212579435 -0.319300742290328 1.252843923930588 0 255 0
0.067954464099922 -0.163711371346026 1.023481520156708 0 255 0
0.192820822626218 -0.038701668860068 1.099244991983317 0 255 0
-0.041438464926218 0.046302956577398 0.943524326257768 0 255 0
-0.001067265871519 -0.115851584459567 0.996964489003223 0 255 0
-0.101549890899385 -0.027114375681494 0.969180774182829 0 255 0
-0.092365045298795 -0.108582658609165 1.042877417720694 0 255 0
-0.006369051536357 -0.031559050608012 0.903868839511247 0 255 0
0.007999380135892 0.080660744637095 0.974790034534387 0 255 0
0.016186505485176 -0.498052847299765 1.232155352785727 0 255 0
0.064901007366078 -0.412032691999507 1.248627279884658 0 255 0
0.114627323572041 -0.257682052974984 1.109451904091258 0 255 0
-0.017192620514674 -0.215737623676395 1.044942237705897 0 255 0
0.049728375202558 -0.208638571379489 1.049100278804736 0 255 0
0.054915917521520 -0.188293167640282 1.036896056895552 0 255 0
0.045791104171169 -0.172421907661422 1.024770367021093 0 255 0
0.174407459021989 -0.119550349995575 1.056977736230206 0 255 0
0.121597739388012 -0.097600871896519 1.039860701899466 0 255 0
0.364411090947469 -0.067657838864537 1.373141682669553 0 255 0
0.155169623014341 -0.016403980023073 1.030966336683543 0 255 0
0.395253160550385 -0.003023971507141 1.456735619364177 0 255 0
0.010669575986237 0.028416623237369 0.871040558637849 0 255 0
0.451399235857713 0.131904298331411 1.493133361730949 0 255 0
0.470333038475475 0.166847140069989 1.503518638486353 0 255 0
1.415761452940406 0.695745800950057 3.500193807797046 0 255 0
1.657878247452652 0.815618349924305 3.653248500492795 0 255 0
0.179416516423652 -0.347355122405496 1.244840851568515 0 255 0
0.027177354438422 -0.242799767881286 1.071453235824462 0 255 0
-0.102886117582824 -0.061975676010086 1.040474416228046 0 255 0
0.356703542985471 -0.036299687508026 1.348204124663104 0 255 0
-0.225375501527219 0.203950432960739 1.082728844248565 0 255 0
0.302068686002096 0.257183520461263 1.161117148912880 0 255 0
0.966071951720722 0.550970847136252 2.306940668185322 0 255 0
0.247163889162138 -0.284893609840240 1.322223241066994 0 255 0
0.230920593028276 -0.230107422251332 1.230039603979981 0 255 0
-0.155962277652596 -0.097582064859621 1.070804407787609 0 255 0
0.990983608647658 0.410004425323515 3.072155444558179 0 255 0
0.382019065038659 -0.084255905673240 1.423646838987565 0 255 0
-0.048289617746697 0.076953183153192 0.946125444993407 0 255 0
0.352997359196211 0.241289730090575 1.254392397943887 0 255 0
0.223373222887078 -0.097957861754453 1.117845091630767 0 255 0
0.380276617201859 -0.036988212010601 1.406052372352276 0 255 0
0.076920717796037 0.092545958635555 0.964172117318742 0 255 0
0.213664570518052 -0.135717279263924 1.142066477553463 0 255 0
0.170050608801129 0.027788231321129 1.040143459829724 0 255 0
0.334236956234444 0.142391391342119 1.189279925217455 0 255 0
0.057264085467422 -0.247722130380890 1.073537348074400 0 255 0
0.235959302345090 -0.255551771125360 1.266704722747471 0 255 0
0.102252328057264 -0.207887362432297 1.066863408887883 0 255 0
0.106382213996672 -0.176666502550010 1.034074110170158 0 255 0
0.182615828458144 -0.120600131862115 1.067508427956259 0 255 0
0.242516955124393 -0.110730298345332 1.168577840139034 0 255 0
0.330161862367693 -0.111323725370931 1.392699041200062 0 255 0
0.288597172377889 -0.090926570510615 1.306787037549251 0 255 0
0.353419201817062 -0.058354295238941 1.353873765662929 0 255 0
0.354690069694117 -0.002536289506805 1.342972009592308 0 255 0
0.244046200656840 -0.000170694790418 1.106392833130847 0 255 0
0.031904023058421 0.025973040329892 0.881751418849661 0 255 0
0.154309242399701 0.033252416600678 1.022826694275219 0 255 0
-0.065373624790612 0.059513233338618 0.966558675595234 0 255 0
0.091556105380937 0.087420113964590 0.970974894124052 0 255 0
0.287398408907768 0.103054859736470 1.158409231827888 0 255 0
0.956118304739328 0.406077639170809 3.054094674646454 0 255 0
0.334939360310002 0.179545654011281 1.238267504455232 0 255 0
0.299274330370330 0.177384560165798 1.167889876968643 0 255 0
0.350348470920667 0.197165637382349 1.261821547068001 0 255 0
0.298522392100211 0.189144791492874 1.169770750309791 0 255 0
0.211622924672900 0.221069133567219 1.061161179869542 0 255 0
0.209691038045445 0.228745858581761 1.060224934269078 0 255 0
0.479921935343648 0.339133893662212 1.496466035412945 0 255 0
0.841973348531617 0.555224148067792 2.442899937337192 0 255 0
0.314686204305364 0.268443478594811 1.181568930607699 0 255 0
0.050180497608484 -0.493060670433568 1.231293721347936 0 255 0
0.014324777075430 -0.161810397852851 1.027200587441357 0 255 0
0.242936224124120 -0.032619955335355 1.114938636375446 0 255 0
0.069826741270481 -0.006525535833131 0.972040164023046 0 255 0
0.143282344691440 0.039764613927790 1.015945585589975 0 255 0
-0.077526458836358 0.090534327662768 0.954999341333944 0 255 0
-0.019334392299791 0.131673231389153 0.914424120296744 0 255 0
0.353270610391351 0.187229814244272 1.276875191684197 0 255 0
0.313820215775591 0.181911041641895 1.194044226145134 0 255 0
0.950089464370406 0.508758791422866 3.001002180967796 0 255 0
0.209181526571452 0.235056516388433 1.060493109665350 0 255 0
0.051150852971012 -0.425709525588013 1.268490073242957 0 255 0
0.229061350986956 -0.282285869684627 1.273739734228485 0 255 0
0.247986929264036 -0.286192179060886 1.331371164968822 0 255 0
0.111830190300341 0.054995964958171 0.994688734768680 0 255 0
0.426421934472206 0.107557345667261 1.452708714758232 0 255 0
0.077878468570335 -0.255837337789677 1.091976907406109 0 255 0
-0.208201963233224 -0.156646473355206 1.186295088496207 0 255 0
0.232526006724519 -0.008480579162842 1.101150845690825 0 255 0
0.311261995110654 0.038745608619702 1.259019321839105 0 255 0
-0.061565410524511 0.053865173875811 0.961829366849260 0 255 0
0.016534715003740 0.103921280922738 0.927639264327513 0 255 0
0.053710255067469 -0.068799689424218 1.001065195865249 0 255 0
0.221908782169957 -0.053746234062167 1.109262731310443 0 255 0
-0.069538715089139 0.121649738841096 0.951721135711022 0 255 0
0.030924875413790 -0.489343434499291 1.242389626038489 0 255 0
0.290545002587038 0.002237183871441 1.220236101295522 0 255 0
0.326048055038749 -0.117178748186166 1.402143390441797 0 255 0
0.041017268798738 0.013491058957132 0.897330834638132 0 255 0
0.078166394696105 -0.033648008245162 0.991170656390809 0 255 0
0.070106463582751 -0.342082443052605 1.146174872791491 0 255 0
0.199952962418700 0.030230141898293 1.069906906819371 0 255 0
0.094488164779613 -0.104106684363389 1.054295630648038 0 255 0
-0.005989852972261 -0.289797196957741 1.236246124861366 0 255 0
0.057064117900462 -0.248046423995236 1.074918700436617 0 255 0
-0.042670249861395 -0.201091283960356 1.031610020011845 0 255 0
0.185780890309282 -0.173205634928932 1.110085436772377 0 255 0
0.218079182907497 -0.153147097079942 1.141166951229308 0 255 0
0.022633562499628 -0.096559612836575 0.951695505923516 0 255 0
0.369680879640550 -0.129928414073733 1.428754480885635 0 255 0
0.203943995281414 -0.094893776617353 1.089749296715131 0 255 0
0.289853285252030 -0.104253556821570 1.349652195401602 0 255 0
0.278737976057673 -0.062695463424190 1.265899516482238 0 255 0
0.189638987087567 -0.029304566099637 1.049054195383845 0 255 0
0.061255145979250 0.007184102465126 0.929398199983078 0 255 0
0.130708625802970 0.111930702862958 1.005921092179396 0 255 0
1.073460845030931 0.423352820005875 3.143783851785882 0 255 0
0.893289133630814 0.573744960936452 2.936398115728344 0 255 0
1.002686523521680 0.559010667296978 2.363937793197814 0 255 0
0.888228055506063 0.573869913619415 2.390004432141843 0 255 0
0.017473649002834 -0.429405471602778 1.241205591571591 0 255 0
-0.029691483263873 -0.263977914310941 1.085949975091781 0 255 0
-0.007928596006668 -0.205486194370688 1.051919295733926 0 255 0
-0.034481736170280 -0.172342212434645 1.027387857438639 0 255 0
0.247523957119140 -0.200016749803855 1.234930818126724 0 255 0
0.353461733430520 -0.176586905091889 1.462852637928256 0 255 0
0.311794438982710 -0.151372771984634 1.411252733559467 0 255 0
-0.128539147294778 -0.090299750733362 1.065010824286061 0 255 0
-0.267095764712826 0.214441099048509 1.142750722651329 0 255 0
0.920371464291292 0.550750749746715 2.959841781481644 0 255 0
0.246113106741582 -0.156145617843465 1.203226739785069 0 255 0
0.305964724292179 -0.179052679783434 1.405577889307942 0 255 0
0.100779302032600 -0.038121041810388 1.014870114255541 0 255 0
0.076836295162217 -0.379719113893983 1.212290381057798 0 255 0
0.928722978924875 0.609446983180457 2.997086573679933 0 255 0
0.040540912597788 -0.195666523621592 1.042959269850118 0 255 0
0.229317908441381 -0.145834367082602 1.154870083871749 0 255 0
0.946246533736532 0.432823790793347 3.067028696471047 0 255 0
0.251571014884888 -0.056963985472511 1.188804673769371 0 255 0
0.288976106631961 -0.050495842738468 1.248141767862728 0 255 0
0.083080057628049 0.014630291037313 0.975175905586363 0 255 0
0.929366661065491 0.498989316001008 2.956129200128268 0 255 0
0.035156866110167 -0.064987940930841 0.962788894439361 0 255 0
0.861123085931499 0.425781075161915 2.854139567856175 0 255 0
0.425577088882638 0.134301090909965 1.409055674883479 0 255 0
-0.001196789194396 -0.116294315359812 0.999523218614002 0 255 0
0.074346349927929 -0.401384747171815 1.239219332493071 0 255 0
0.028524048791757 -0.312984745560478 1.117847359734357 0 255 0
-0.174970546367965 -0.317713764639018 1.247017353554883 0 255 0
0.211974621538389 -0.298921378869094 1.249823488692770 0 255 0
0.379324637772008 -0.165783341828170 1.480335489927215 0 255 0
0.294333294666613 -0.078626138092597 1.309517761807278 0 255 0
0.297974063804151 -0.058551524827742 1.278072566187648 0 255 0
0.306582926026195 -0.015977622515002 1.257746718585283 0 255 0
0.308786430256622 -0.006876958267093 1.238693567896075 0 255 0
0.424210989058842 0.051944893883686 1.525055193557623 0 255 0
0.341278893618283 0.106275458804579 1.287693842198782 0 255 0
0.458515971929126 0.173889921847638 1.502779274767933 0 255 0
0.337904768484291 0.206575029075435 1.236862102123322 0 255 0
-0.131981682242578 -0.435898254852221 1.367958363497071 0 255 0
0.137795245704908 -0.153495916821710 1.040987836561378 0 255 0
0.278682668761782 -0.008819862011385 1.208525923650128 0 255 0
0.077637864173423 0.003992917717405 0.977570255881296 0 255 0
-0.072736145544932 0.028346996193051 0.963388960215739 0 255 0
-0.038806190464733 -0.398606835237502 1.228791149397471 0 255 0
-0.046842068309584 -0.191319111030455 1.001404448495205 0 255 0
0.242704020938094 -0.176256115361702 1.184546372434370 0 255 0
-0.253510385406717 -0.198621750197256 1.294193503449700 0 255 0
-0.211890347306534 -0.159036031997149 1.197363266412206 0 255 0
0.360247784620798 -0.016752603237117 1.352444590259058 0 255 0
0.059563580179082 0.050664473719371 0.949916658629491 0 255 0
-0.326212891553366 0.228336101852665 1.238957004282358 0 255 0
0.068889035621304 -0.048039856246363 1.015976707451195 0 255 0
-0.299814675289895 0.094619697166353 1.239984607001768 0 255 0
0.326906066947029 0.093506416355810 1.252868613583407 0 255 0
0.403843867943552 0.185221227642157 1.353058770089754 0 255 0
0.125700040459154 -0.351783796323031 1.196922762502742 0 255 0
-0.159335359053395 -0.441955303407629 1.384774708179389 0 255 0
-0.156738304354868 -0.442239234921592 1.379481810164888 0 255 0
0.380347226948459 -0.034254603386301 1.405492940318672 0 255 0
