ply                 
format ascii 1.0    
element vertex 443
property float x    
property float y    
property float z    
property uchar red  
property uchar green
property uchar blue 
end_header          
-0.036965869882049 -0.506794973999450 1.211850995591366 0 255 0
0.055568614871587 -0.521533044239784 1.251403350546698 0 255 0
0.111214129398469 -0.512253748494213 1.301348122934535 0 255 0
0.124261017019475 -0.506595085114608 1.304067242851913 0 255 0
0.026490709539115 -0.436698630635194 1.241546366253924 0 255 0
0.032470963201911 -0.420385267316680 1.224811777938671 0 255 0
0.041889867344997 -0.414489045691333 1.222596666370551 0 255 0
0.146317725955764 -0.360229686434852 1.227107189820061 0 255 0
0.180278000714772 -0.360254879686458 1.254508060277876 0 255 0
0.190226173959185 -0.342874500035717 1.262058765646430 0 255 0
-0.224273200226582 -0.314173177640721 1.317292916783561 0 255 0
0.082679357643375 -0.254094886027480 1.091974146034860 0 255 0
-0.037893558516197 -0.245146920946188 1.073551638902692 0 255 0
0.137251562702570 -0.250127582602928 1.121368496377793 0 255 0
0.082770527328238 -0.221268236019768 1.058726600638111 0 255 0
0.212843003964748 -0.231981533750392 1.196752697657151 0 255 0
0.000656174381130 -0.183077101438506 1.043242470684039 0 255 0
-0.045927447955237 -0.179722387471749 1.034224840159835 0 255 0
0.050560432576132 -0.178735995363036 1.031218239995981 0 255 0
-0.021742557625891 -0.178478195679613 1.037571587783421 0 255 0
0.120461236665381 -0.159049411816460 1.031306309188481 0 255 0
-0.070551807689053 -0.151516075180513 1.022656832380412 0 255 0
0.064393082887721 -0.142980531538427 1.011162259417993 0 255 0
0.035040010745087 -0.141457757723430 1.021495334614066 0 255 0
0.072639143313352 -0.139914749176974 1.013402049867793 0 255 0
0.338720895099885 -0.202736450220253 1.480997328929359 0 255 0
-0.159777604511537 -0.143404927965481 1.077465797259646 0 255 0
0.153129247106246 -0.141293239447009 1.053703411020223 0 255 0
-0.111549891000799 -0.131980608148901 1.047159199728046 0 255 0
0.357094532036888 -0.186044339278243 1.466411472758134 0 255 0
-0.154612026490073 -0.128954157770893 1.071849820079059 0 255 0
0.079449806679316 -0.122474011125128 1.035979069773717 0 255 0
0.192950056130179 -0.122059750963496 1.090134966013281 0 255 0
-0.171833979073727 -0.122294053824919 1.106540212353349 0 255 0
0.374698599338570 -0.150940560189679 1.455109879524989 0 255 0
-0.103728764090924 -0.106720144936409 1.057767646414607 0 255 0
0.121231844253035 -0.104457720460765 1.047939780174208 0 255 0
0.203331878071963 -0.111313786448520 1.098126039683032 0 255 0
0.108838604964458 -0.104274115814594 1.045425191678133 0 255 0
0.326924288304849 -0.141365287058996 1.436867946937781 0 255 0
0.207664530151774 -0.096569724286933 1.095340842778416 0 255 0
0.233113900039191 -0.093927568558141 1.136463144617805 0 255 0
0.191343593154350 -0.087724766129447 1.081625132008654 0 255 0
0.315123656660370 -0.109255261710775 1.396015188437878 0 255 0
-0.132606175150069 -0.069314969882105 1.062114210561147 0 255 0
0.070366879120904 -0.063767132213452 1.026108509809226 0 255 0
0.028224401273917 -0.049026581908092 0.930647232304595 0 255 0
0.355777329991427 -0.036168133839648 1.365754305280152 0 255 0
0.352240734098136 -0.017948033203046 1.357011511022068 0 255 0
0.053801528015609 -0.010506266933408 0.943380390226561 0 255 0
0.247727178202499 -0.012765953106978 1.118632518368466 0 255 0
0.129787746372948 0.015979893576314 1.019680948178990 0 255 0
0.129753083482895 0.015908440695135 1.019396413612664 0 255 0
-0.091924326474290 0.019846906133242 0.996255171922611 0 255 0
0.126096292853250 0.023451591975670 1.017306671905756 0 255 0
-0.031405672076237 0.025218484584457 0.897880374638464 0 255 0
0.416285384015740 0.056478598626684 1.455181051801387 0 255 0
0.090250535454526 0.071919381351601 0.984735783993554 0 255 0
0.367944113777188 0.098382162706787 1.359154088788365 0 255 0
0.347696663313699 0.102771711546495 1.304602027660777 0 255 0
-0.094418205931405 0.106570866914107 0.959981617763800 0 255 0
-0.194764084205528 0.137091702717493 1.042278193213603 0 255 0
-0.066670829748002 0.123713321929322 0.945360092256072 0 255 0
2.097783754342066 0.701612027730155 5.069821424330092 0 255 0
0.016182978743427 0.144337299397357 0.922377984969471 0 255 0
1.684555980854808 0.676476172457674 3.878561994030350 0 255 0
1.644385286964014 0.748125946029271 3.805731550253614 0 255 0
1.651235035745708 0.750643256288223 3.820734425865673 0 255 0
-0.006335270103794 0.203181510979671 0.925066671784785 0 255 0
-0.289804903668389 0.289021955587196 1.166704683866314 0 255 0
-0.202149736320204 0.275577490657695 1.052203032317998 0 255 0
-0.858295585787166 0.728023339322845 2.476555456503062 0 255 0
0.047916796474507 -0.508319608531570 1.238208169457981 0 255 0
0.012804785090075 -0.514307470934965 1.262326358968338 0 255 0
0.064969434545848 -0.506423661183616 1.249405330615152 0 255 0
-0.099333059616708 -0.500553181986896 1.257875987771960 0 255 0
-0.117998103989712 -0.485421365221497 1.253549716720554 0 255 0
0.122826831815369 -0.498237110547593 1.308216159564286 0 255 0
-0.019948948496742 -0.218755406993280 1.056021824701737 0 255 0
-0.019927909782958 -0.218730864032653 1.055672580572441 0 255 0
0.061544775305174 -0.215381546254548 1.061298586491964 0 255 0
-0.027980836789289 -0.208224476498209 1.055182919262740 0 255 0
-0.087613867498306 -0.200730078690160 1.044690246324376 0 255 0
0.066754797180162 -0.196194260888213 1.036335732146835 0 255 0
0.102212618316457 -0.199736826553060 1.052627307677256 0 255 0
-0.083461434756268 -0.187360173082770 1.039562073548119 0 255 0
-0.038682559531262 -0.180515180775435 1.034622801059691 0 255 0
0.044451700367904 -0.171056461751227 1.028262051236496 0 255 0
0.321304089252425 -0.249042173214658 1.509865826015970 0 255 0
-0.136077555453325 -0.163292257633749 1.052506115422990 0 255 0
0.028718615860026 -0.158811425884115 1.026748293163289 0 255 0
0.028703594191568 -0.159015494363808 1.027366719923898 0 255 0
-0.026381055519590 -0.152890769858943 1.017335783415979 0 255 0
0.139607410301073 -0.152995680028756 1.044735651717506 0 255 0
-0.031039633215329 -0.142142303507583 1.014850611600899 0 255 0
0.139440388379369 -0.135334451698602 1.040068010491445 0 255 0
0.355738872414635 -0.128963742973771 1.434664835332554 0 255 0
0.049722334370299 -0.082802057678545 1.014342888991930 0 255 0
0.329704813891677 -0.101518586636564 1.387026974609863 0 255 0
0.193471510713914 -0.078248804862296 1.086151598799398 0 255 0
-0.085370652642256 -0.068723219468779 1.038516510633455 0 255 0
0.054535482324036 -0.051905938358547 0.990162091089826 0 255 0
-0.057004413424262 -0.022263345027611 0.967498528073521 0 255 0
0.052924063147151 -0.017541004398263 0.947995345701582 0 255 0
-0.067248323446324 -0.001753729297124 0.952533121687438 0 255 0
0.097232715630955 0.001148869100251 1.002070807555067 0 255 0
0.248063106660563 0.010989134783563 1.113846589431657 0 255 0
0.101800265874608 0.039090113663793 0.998182847453363 0 255 0
-0.076426104523479 0.043444667698167 0.981942824611662 0 255 0
-0.068632925219683 0.046784098210874 0.972904484876997 0 255 0
0.134880747296868 0.049260461295476 1.015571349727218 0 255 0
-0.160590499443788 0.061174887565020 1.028390963414139 0 255 0
0.462410434704639 0.115855155417643 1.529411581629826 0 255 0
-0.205810002934956 0.085366385754099 1.065651882551867 0 255 0
0.136427001802556 0.083659444764280 1.013052990187145 0 255 0
-0.082086757784586 0.088928380420831 0.960897608528099 0 255 0
-0.123436520865831 0.105668780435628 0.973073454323147 0 255 0
-0.212920155242473 0.120242876459158 1.071597593161629 0 255 0
1.079985052227403 0.418964952667998 3.208783264541075 0 255 0
-0.066339689554033 0.128950309079910 0.933602417709714 0 255 0
-0.337104160889616 0.181158912794698 1.276406908741952 0 255 0
-0.044913314784015 0.132267331601738 0.919527859844972 0 255 0
-0.060523599891468 0.135736070477310 0.926832343882037 0 255 0
1.162243700867193 0.512641906714511 3.296005194990676 0 255 0
-0.106527843009732 0.166414530468120 0.951132185601512 0 255 0
1.643345660408027 0.716173548794217 3.987897171970073 0 255 0
-0.138383919628266 0.174582859241496 0.970704626594653 0 255 0
1.663636209822747 0.699581683754332 3.867972394332482 0 255 0
0.206670241225033 0.219460954849930 1.070767973145503 0 255 0
0.214382258574715 0.221397498822102 1.070585516437602 0 255 0
1.678444851356714 0.793073117873506 3.802289896207455 0 255 0
0.211913592489932 0.235628558099334 1.069769254426206 0 255 0
0.307574637799530 0.258356410662783 1.175214056499538 0 255 0
0.202560684478531 0.245770018142963 1.073264213273056 0 255 0
0.374322114254050 0.293507372050135 1.279635070569691 0 255 0
0.019096349766660 0.223103926151736 0.914957137650561 0 255 0
-0.284101524947431 0.294509257166142 1.156444700115960 0 255 0
0.017785013462116 -0.462538070294738 1.263003809931880 0 255 0
-0.014865024273941 -0.470465462360487 1.297908859972746 0 255 0
-0.169105001467775 -0.483990774410073 1.345814009434603 0 255 0
-0.189498232864327 -0.371839843097222 1.307275139161654 0 255 0
0.076185089943159 -0.265862858773678 1.098371560219588 0 255 0
-0.028970497969085 -0.230203199184896 1.065443814930005 0 255 0
-0.035169233721511 -0.195358031995859 1.043992984565440 0 255 0
-0.111029117715399 -0.189620431639862 1.057488207786085 0 255 0
-0.108327778940666 -0.172570158531083 1.039635798317520 0 255 0
0.067425148085933 -0.158527999967486 1.015908449367556 0 255 0
0.330999150833947 -0.235042208201908 1.495667290920018 0 255 0
-0.111445574545569 -0.161341675667802 1.036950701987049 0 255 0
-0.286846759737436 -0.185939816293328 1.349096241264739 0 255 0
-0.266781711992190 -0.169137529110615 1.302922612606807 0 255 0
0.192962510781485 -0.135493098700105 1.091326671717605 0 255 0
-0.170534789658058 -0.132163773292495 1.093332241914433 0 255 0
-0.181596459007963 -0.121731860920050 1.107357366237726 0 255 0
0.140052125153052 -0.093989930011296 1.059537220668012 0 255 0
0.039326973249849 -0.074432985069980 0.971990610691548 0 255 0
-0.083871810285233 -0.078285811081575 1.042241634923470 0 255 0
0.389312558940681 -0.093452716317058 1.443911590146189 0 255 0
-0.285569452075711 -0.084848081231904 1.297654437876961 0 255 0
0.169339371924021 -0.059291768737667 1.061297758933607 0 255 0
0.083028958912324 -0.053676737574976 1.018574198551348 0 255 0
0.089473131358010 -0.044158111627877 1.024422868930743 0 255 0
0.107352333207030 -0.030495829284265 1.021271658593604 0 255 0
0.066046032496363 -0.023347673954879 0.985240218462154 0 255 0
-0.199834170838109 -0.012903864073667 1.070094161849041 0 255 0
0.236808677250387 -0.014092695287307 1.113560989996370 0 255 0
-0.159333275358467 0.031407058532570 1.034163498000695 0 255 0
-0.111805431074363 0.061782731779824 0.986406346546037 0 255 0
-0.176755559484762 0.074214207760157 1.039859837636054 0 255 0
-0.332016910793084 0.099506154007756 1.308700022190002 0 255 0
0.115426238418434 0.105949092432499 0.994474072915188 0 255 0
-0.113062085300248 0.107869316046226 0.968348328448831 0 255 0
-0.077926669901326 0.104845756394247 0.950887418130633 0 255 0
-0.023555588122184 0.105569106491791 0.932648328374282 0 255 0
-0.319192676882012 0.151982559601288 1.264068198640703 0 255 0
-0.076726852190197 0.181353233080189 0.943903732716165 0 255 0
-0.228749184784260 0.220568362082576 1.082997494887847 0 255 0
0.331899643645691 0.268518760196264 1.215051188634773 0 255 0
-0.288527058986920 0.259568713165287 1.164382399604437 0 255 0
-0.294792901211671 0.275434597187258 1.163607582368013 0 255 0
-0.253704299471943 0.275256107533129 1.106887792348412 0 255 0
-0.075422666559301 0.233176593687910 0.909372594338798 0 255 0
-0.104438824822860 0.239875256261897 0.927089340955587 0 255 0
-0.220175488680783 0.282908274265953 1.056627456147392 0 255 0
-0.006471263818518 -0.421215017882749 1.227728454512533 0 255 0
-0.062609567058931 -0.392874640204189 1.208657739545055 0 255 0
0.038496570970600 -0.274362174929287 1.095787452991784 0 255 0
0.084948487864790 -0.239329991430384 1.085437548151544 0 255 0
0.009754404273944 -0.209912411245502 1.054045986399166 0 255 0
-0.114885089675507 -0.205567012257995 1.068526449729724 0 255 0
0.037524040223900 -0.195150893884772 1.039170827598568 0 255 0
0.056040694200378 -0.181916362981857 1.029313154696011 0 255 0
-0.094326842123456 -0.164124954629772 1.034980613804220 0 255 0
0.166943116890366 -0.159211153475806 1.074831172279809 0 255 0
-0.038974290554121 -0.150808432674417 1.022324400330193 0 255 0
-0.118289200530917 -0.089744864705558 1.065538861833521 0 255 0
-0.054448575500359 -0.080980254598854 1.010173696744595 0 255 0
-0.101725619370671 -0.080888494852721 1.048919065543448 0 255 0
-0.083532760140222 -0.079628768705724 1.045375645863112 0 255 0
-0.179699874783142 -0.081254051914559 1.105959055621126 0 255 0
0.051927055051581 -0.074140761023032 1.007117066779865 0 255 0
0.224167972446180 -0.080044991417689 1.123347539056730 0 255 0
-0.139550940375750 -0.073083630275538 1.070615360948016 0 255 0
-0.068860796092451 0.014899667361941 0.952075453685411 0 255 0
0.162993518074411 0.051305278956442 1.032599624039803 0 255 0
0.426593899797613 0.081059486092803 1.484837852131827 0 255 0
0.299917832729671 0.098814917568366 1.187708796573842 0 255 0
-0.103838089357478 0.092263078144659 0.969006270375960 0 255 0
-0.259135110317297 0.163768438048690 1.129061102687239 0 255 0
-0.314763744955095 0.215148750931779 1.230615967210229 0 255 0
-0.112049215482665 0.192074547502450 0.952144062410046 0 255 0
-0.208847411962260 0.216274150632844 1.056096916510025 0 255 0
-0.105194923152959 0.202176178733775 0.942592746316462 0 255 0
-0.198292674315758 0.234886050209117 1.046749737556712 0 255 0
-0.226359005886374 0.254615226644290 1.072354778975094 0 255 0
0.047674116347073 -0.500114624988151 1.257391441666417 0 255 0
-0.039653891749948 -0.396125565132982 1.201758626688767 0 255 0
0.096278934200693 -0.377040992906402 1.202196265961813 0 255 0
0.016189921302047 -0.265577077855122 1.084870153602056 0 255 0
0.207479504838284 -0.300173743742513 1.248521707695168 0 255 0
-0.224122821249587 -0.290303970081607 1.290489375717600 0 255 0
0.078741666089023 -0.214111776351846 1.060073474589155 0 255 0
0.357382255962795 -0.191689172585009 1.476782305650268 0 255 0
-0.093050116005769 -0.130605463780232 1.042934640708108 0 255 0
-0.197208266286555 -0.114117544337074 1.145321189631741 0 255 0
0.180531716833652 -0.073366470202560 1.073141596813636 0 255 0
0.123538265803665 -0.044089423347773 1.037440779302247 0 255 0
0.130545834686072 -0.026399190628876 1.027010465282110 0 255 0
0.055930668744023 -0.003183969488136 0.947262607129588 0 255 0
0.081873129645820 0.008792028040770 0.979864299261051 0 255 0
-0.030939524906875 0.014934545585055 0.897394921244356 0 255 0
0.043808979347164 0.042870594361809 0.951175086232378 0 255 0
0.089322328084764 0.054080964892065 0.993128564082229 0 255 0
0.457271003136604 0.147026554937974 1.487548363560038 0 255 0
1.177362870101619 0.498068453387120 3.287587421620668 0 255 0
-0.033370341167380 0.143601876371206 0.920785219183886 0 255 0
-0.093344031063697 0.171792615344710 0.952441804655440 0 255 0
-0.036796762219773 0.227102413554864 0.901902152440125 0 255 0
0.059698557381701 -0.230786419233515 1.067312448689361 0 255 0
-0.266310796641072 -0.229792145694565 1.333625235213729 0 255 0
-0.053907322354144 -0.164968665856842 1.025361379815088 0 255 0
-0.087558402025715 -0.146722312936281 1.027739386497567 0 255 0
-0.141421697888543 -0.140081327736721 1.058552885461932 0 255 0
-0.093988938496683 -0.008779254651312 0.984139854435159 0 255 0
0.291198680387054 -0.004202557745245 1.211407722136973 0 255 0
-0.051850075796892 0.088994678252972 0.938723138122438 0 255 0
0.101587844111500 0.098926026728780 0.982746541561021 0 255 0
0.007561659123342 0.098838653957393 0.930131027844096 0 255 0
-0.071338597103664 0.119543135056297 0.948346406721848 0 255 0
-0.110924184109473 0.134494235891130 0.963633097412557 0 255 0
1.088202267614795 0.478920863383455 3.222193398070851 0 255 0
0.348280316918346 0.232556954755070 1.259200088566242 0 255 0
-0.165169938739842 0.231191812354866 0.989762031468635 0 255 0
-0.159535746455269 -0.445562022514319 1.371035947560761 0 255 0
-0.041935587918364 -0.200685525702967 1.051356104497797 0 255 0
-0.057987757952454 -0.166202321167546 1.026224103632666 0 255 0
-0.144972187924632 -0.080240895103807 1.062643919842897 0 255 0
-0.236200120307507 0.076381498590545 1.114119169633159 0 255 0
-0.095238327373998 0.148785879958510 0.958231367307160 0 255 0
0.338509804874492 0.194387708451850 1.256503070284960 0 255 0
-0.130511295853351 -0.376537325775563 1.246226522849585 0 255 0
-0.206430927358090 -0.331218471184433 1.236005433169153 0 255 0
0.082650407087252 0.022790062863408 0.980277961351189 0 255 0
-0.303664081533017 0.087222753116103 1.239968529227309 0 255 0
0.075478471427017 0.090822012262966 0.974133585179460 0 255 0
-0.123624746384806 0.100735787254120 0.993935760522216 0 255 0
0.173788330758555 -0.332081101930676 1.261291869470267 0 255 0
0.066148273017277 -0.171935164732021 1.030537919699403 0 255 0
0.194433610140096 -0.044648001903454 1.108900836362056 0 255 0
-0.045377184676945 0.043613242783216 0.949341731206330 0 255 0
-0.004418854857238 -0.122709221834795 1.003792467186441 0 255 0
-0.004537524021295 -0.123144931798385 1.006252261281057 0 255 0
-0.107128280050475 -0.031496424390410 0.975677164635224 0 255 0
-0.097903644793451 -0.115283656217118 1.051312119201132 0 255 0
-0.009522543065971 -0.036197006546698 0.903278534220921 0 255 0
0.005344334905361 0.078545180061057 0.981614825210702 0 255 0
-0.007060769696045 -0.297888708097382 1.234879446176476 0 255 0
0.012516902824186 -0.515795686560414 1.244690039107563 0 255 0
0.113825208677223 -0.268713330543293 1.118652501605747 0 255 0
0.047403140039796 -0.218038034220824 1.056886701007660 0 255 0
0.052714158938923 -0.197018659951185 1.043903853283068 0 255 0
0.175263943152575 -0.127158645118185 1.065011607224340 0 255 0
0.121246045304580 -0.104482987436076 1.047597041614233 0 255 0
0.076761186679608 -0.000236007093980 0.981516076551936 0 255 0
0.007863881617558 0.025430853931370 0.874459040658957 0 255 0
1.483320543504019 0.710293360506584 3.643723903701576 0 255 0
1.738880557433435 0.835241308076249 3.806926306587603 0 255 0
0.047675957217598 -0.509632328759699 1.241205421989106 0 255 0
0.024278443227263 -0.253058221131520 1.079666538460734 0 255 0
-0.108586282375675 -0.067507624521895 1.049092318501299 0 255 0
0.307481772199013 0.258130847823589 1.173904160144686 0 255 0
0.233279630279756 -0.241483418312523 1.243139898525241 0 255 0
0.057596662591358 -0.188919683414636 1.038584278443177 0 255 0
1.033050142942351 0.412236637911811 3.183184073922867 0 255 0
0.085026955185268 -0.055684773198838 1.019977563364405 0 255 0
-0.052321644399831 0.074995272451047 0.952141754341882 0 255 0
0.359996034658766 0.241506521075736 1.270283935517340 0 255 0
0.171178222666060 0.023719666087013 1.048324800092641 0 255 0
0.055084439372464 -0.258136218773706 1.081610907272561 0 255 0
-0.021216389794591 -0.225271196354578 1.053346000080576 0 255 0
0.238471543671021 -0.267748922678146 1.280737140655616 0 255 0
0.101227518200606 -0.217415431378276 1.074805463526130 0 255 0
0.105474581557070 -0.185364865363494 1.041573071878663 0 255 0
0.186956633548170 -0.181869871095043 1.116122237918801 0 255 0
0.183688272548327 -0.128284073337098 1.075690915586953 0 255 0
0.245310843227651 -0.118845044508871 1.180034854198272 0 255 0
0.335934580903994 -0.120831635442096 1.412081041341348 0 255 0
0.293014347748972 -0.099353390077117 1.322937590825501 0 255 0
0.370673264253472 -0.075822392300540 1.389048584648555 0 255 0
0.359777125717063 -0.066341913092191 1.371817599681141 0 255 0
0.361223211794834 -0.009021349681557 1.360823104843847 0 255 0
0.402644203461725 -0.010280831779853 1.474885975744918 0 255 0
0.247038927491289 -0.005347037469130 1.116498495251515 0 255 0
0.029612445599670 0.022834639785240 0.885293532089323 0 255 0
0.155067272981023 0.029256894443271 1.031251549771350 0 255 0
-0.069850232272415 0.057116626167347 0.973164396587551 0 255 0
0.090897109192450 0.085207178549182 0.977270807573092 0 255 0
0.461535347974989 0.128267710006735 1.516450251359879 0 255 0
0.291901909749292 0.100099668692745 1.170417354214750 0 255 0
0.996748306741552 0.408409830148124 3.164891223944339 0 255 0
0.341178094832947 0.178198265799025 1.253262036936310 0 255 0
0.304354890702941 0.176252393133855 1.180527756032894 0 255 0
0.357140661582152 0.196187886959650 1.277743468458795 0 255 0
0.303640307690356 0.188318652177235 1.182571172953200 0 255 0
0.212408241813161 0.229365043518726 1.069520416083391 0 255 0
0.491872710030831 0.341441864851971 1.521982577717383 0 255 0
0.873051872990411 0.563770837571009 2.515306597905631 0 255 0
0.320523681917273 0.269614527337006 1.195054204327362 0 255 0
-0.060115462504633 -0.427978294741752 1.263763197566455 0 255 0
0.011295642656636 -0.169864428481198 1.034361781146046 0 255 0
0.245801210463328 -0.038608890089008 1.124931210782062 0 255 0
0.363084107298595 -0.043689347568827 1.365061708851827 0 255 0
0.068421618107371 -0.010857519214552 0.978039544863068 0 255 0
-0.082240046619320 0.088959784121038 0.961436724717263 0 255 0
0.481095423582800 0.164031199539094 1.526920547809773 0 255 0
-0.022542923184084 0.131008894599108 0.919540534466860 0 255 0
0.360149615284591 0.185934213979418 1.293191569951471 0 255 0
0.319372358798814 0.180793111923280 1.207570855956747 0 255 0
0.990411247063287 0.515576251579303 3.108779259843963 0 255 0
1.009358229955162 0.565458503807465 2.397371645794224 0 255 0
0.048602064230507 -0.441879967113831 1.282369818420110 0 255 0
0.231352897916756 -0.295179432315664 1.287913683640959 0 255 0
0.250906168975799 -0.299594827013923 1.347473629580253 0 255 0
-0.067124284541421 -0.140859608622725 1.023140822957474 0 255 0
0.111591601789628 0.051891754661077 1.001536257298594 0 255 0
0.435697107673766 0.103422090218332 1.475044803688712 0 255 0
0.395348008332867 0.111064902738831 1.380062688573284 0 255 0
-0.234842618087089 0.205780299615011 1.096961746146440 0 255 0
0.076179716812946 -0.266640513457590 1.100722567657709 0 255 0
-0.217040010722343 -0.165108615351516 1.199882639423538 0 255 0
0.235208525983646 -0.013746486823309 1.111099282023527 0 255 0
-0.065951342047688 0.051331817775166 0.968218116097151 0 255 0
0.014100603763828 0.102464026990635 0.933031796218355 0 255 0
0.224202764600855 -0.060169175802960 1.119106973842907 0 255 0
-0.073995825771194 0.120817852928605 0.958190139672645 0 255 0
0.027678764982273 -0.506854440876756 1.255061224002908 0 255 0
0.225560988523826 -0.105582683945081 1.126808030335224 0 255 0
0.295022436214386 -0.003464433804926 1.233915468870526 0 255 0
-0.207729743357566 -0.338053925394387 1.270761693978410 0 255 0
0.331690935902376 -0.126860681057127 1.421600850306588 0 255 0
0.038917595010574 0.009986846103815 0.901243334608919 0 255 0
0.422885819821421 0.031696276754963 1.583948434426161 0 255 0
0.076904841551342 -0.038706806445289 0.997797843121474 0 255 0
0.342022088839517 0.140356119184590 1.210674760534534 0 255 0
0.215570552486303 -0.143952583802190 1.151103314662921 0 255 0
0.068069087140219 -0.355340072230158 1.156390917382263 0 255 0
0.201859498386645 0.026037961616272 1.078769927555296 0 255 0
0.093521954013986 -0.111133173785963 1.062396749430182 0 255 0
0.054896103150435 -0.258449212549021 1.082928570404397 0 255 0
-0.047185973334666 -0.210000817308258 1.039012698714042 0 255 0
0.220086582509937 -0.162063819518589 1.151399826604898 0 255 0
0.019902302376158 -0.102731994966636 0.956780148882875 0 255 0
0.376539161256811 -0.140186498730117 1.449022744180430 0 255 0
0.205641418745442 -0.102122834483339 1.098537533615801 0 255 0
0.294399972312439 -0.113223464640371 1.367174547880724 0 255 0
0.282850062961620 -0.070182588471950 1.280669500880618 0 255 0
0.191085654330002 -0.034787578999442 1.056907106759055 0 255 0
0.059647625196459 0.003359792385924 0.934108163749403 0 255 0
0.131092115003520 0.110075583724669 1.013255025124133 0 255 0
1.123045276704422 0.427759662437506 3.271050413223000 0 255 0
0.931413689500334 0.583926376170807 3.042509924804705 0 255 0
1.038998826375951 0.567218835436536 2.431530687829067 0 255 0
0.921043637630536 0.583319879985748 2.460716252080304 0 255 0
0.014034057149393 -0.445402097445360 1.254245787323851 0 255 0
-0.033940831242283 -0.274656770317949 1.094407500184289 0 255 0
-0.011567458147778 -0.214648600400518 1.059667906504399 0 255 0
-0.038702107962328 -0.180547652570814 1.034654121280488 0 255 0
0.250381780925972 -0.210659058760448 1.248044538850637 0 255 0
0.359885204327700 -0.188221634403372 1.484213744010344 0 255 0
0.316998864920869 -0.161950082735253 1.430894480823609 0 255 0
-0.135015997533180 -0.096583897352131 1.074562067153341 0 255 0
-0.277393188974851 0.216489196958503 1.158126295269716 0 255 0
0.959607950102448 0.559743191305995 3.066674615898591 0 255 0
-0.273051792633008 0.299387251623366 1.133577818224271 0 255 0
0.248949000274778 -0.165527637812370 1.215369658204910 0 255 0
0.310889351728537 -0.190276153001650 1.424633650847688 0 255 0
-0.035859685102872 -0.112648018176858 0.986607291661194 0 255 0
0.100073826886617 -0.043434064326024 1.021902080173608 0 255 0
0.075003904481523 -0.394242000877335 1.224105697110151 0 255 0
0.067336809335579 -0.053785224706637 1.023505273725504 0 255 0
0.969294862551002 0.621347768772578 3.108343996282670 0 255 0
0.248617535932053 -0.263164609123135 1.284841225961858 0 255 0
0.038079715734422 -0.204628422202764 1.050262222232028 0 255 0
0.231646332284603 -0.154672122992874 1.165535157196665 0 255 0
0.987033059786041 0.436555517839031 3.180317215950504 0 255 0
0.254787316884146 -0.063887312254315 1.201003652425263 0 255 0
0.293325471995034 -0.057629265761555 1.262367107583899 0 255 0
0.082049656730733 0.010735359014839 0.981232785313165 0 255 0
0.968771917360760 0.505730448362245 3.062537130628960 0 255 0
0.032805297589945 -0.070523403417033 0.968271110257466 0 255 0
0.896286381520705 0.429472213816219 2.952873126764369 0 255 0
0.434693870286486 0.131022908401971 1.429660630636683 0 255 0
0.072442367463526 -0.416616651781470 1.251791275781609 0 255 0
0.025597575739149 -0.325102486844283 1.126827111744319 0 255 0
-0.183299291981988 -0.330736023469917 1.261885093241401 0 255 0
0.213735193148744 -0.311986024669759 1.262924904424827 0 255 0
0.386549918705749 -0.177311088615023 1.502437665678921 0 255 0
0.298936170815680 -0.086760991699723 1.325708608797508 0 255 0
0.302621763836019 -0.066043804871867 1.293230521899009 0 255 0
0.311509594189024 -0.022334515575749 1.272408376492457 0 255 0
0.313749171311695 -0.012926653699915 1.253022341245185 0 255 0
0.433569271440850 0.046034698404372 1.550044257136233 0 255 0
0.347612625271051 0.102855678145104 1.304090605067801 0 255 0
0.469220845249902 0.171433070500751 1.527659703558460 0 255 0
0.344318700141573 0.205945993300932 1.251991495412225 0 255 0
-0.139467610510045 -0.452974016310519 1.386505931802470 0 255 0
0.137698198967807 -0.161670574093556 1.048091812069067 0 255 0
0.282764362145266 -0.014723203269068 1.221544720676311 0 255 0
-0.077411107988578 0.025228872916594 0.969628861436287 0 255 0
-0.043606828582940 -0.413615772515664 1.241661847545338 0 255 0
-0.051344681671153 -0.199753475606787 1.007538098016485 0 255 0
0.245355609492004 -0.186005529064648 1.195899055454355 0 255 0
-0.221014041891384 -0.167637151727320 1.211917494723482 0 255 0
0.366871298394717 -0.023664442180548 1.370084388295471 0 255 0
0.058082616083280 0.047740166951655 0.955256132683774 0 255 0
-0.338877622925037 0.230973872499926 1.259246004090313 0 255 0
-0.311591351771277 0.093065727605324 1.258974449038453 0 255 0
0.332687960774066 0.089903177253463 1.267902844945294 0 255 0
0.412398054352396 0.183594705618874 1.372310365677613 0 255 0
0.125102557613108 -0.365627652208817 1.208339162866472 0 255 0
-0.167583265046756 -0.459272114090028 1.403951596498853 0 255 0
-0.164903809470629 -0.459515230386122 1.398420490374007 0 255 0
0.387704559575752 -0.041908709062392 1.425433346172472 0 255 0
