ply                 
format ascii 1.0    
element vertex 248
property float x    
property float y    
property float z    
property uchar red  
property uchar green
property uchar blue 
end_header          
-0.038042829893579 -0.267046311280444 1.143728056725381 0 255 0
-0.151886429014721 -0.092586133098985 1.218469986875771 0 255 0
-0.030971012250230 -0.266498779039619 1.142159401944937 0 255 0
0.034047769009396 0.058391615530580 1.147361098342762 0 255 0
-0.076822784739085 -0.212313657055548 1.156523264371973 0 255 0
-0.051797942817065 -0.211213500547999 1.151085011543187 0 255 0
0.003847858725056 0.031566901581246 1.231224321582910 0 255 0
-0.072385758620993 -0.211873568908475 1.154288998571418 0 255 0
-0.060405694278883 -0.208672795042412 1.151733791379471 0 255 0
-0.054779615712100 -0.208382080848286 1.152054242066608 0 255 0
-0.049141906962888 -0.207855139507220 1.151435163275475 0 255 0
-0.057889133752181 -0.205577749972058 1.152946467781796 0 255 0
-0.051823056889546 -0.205083460710008 1.151818207520126 0 255 0
-0.235695750819870 0.148222736857649 0.915892802331526 0 255 0
-0.304421086208809 -0.303557490763898 1.218491599743524 0 255 0
-0.273958516952723 -0.299960227262631 1.210548964106013 0 255 0
-0.140824487096350 -0.207762357785458 1.169280105196528 0 255 0
-0.126370486755592 -0.207217288049372 1.167839212654093 0 255 0
0.056182037438140 -0.279752652705507 1.115779332140975 0 255 0
-0.089187936715596 -0.287693523501178 1.158246012035124 0 255 0
-0.181723556553689 -0.209156999410540 1.179320754613259 0 255 0
-0.175291631549673 -0.208420340322718 1.179079600504654 0 255 0
0.183411075883460 -0.187175571496068 1.102365458187573 0 255 0
0.168450057294186 -0.187886942179969 1.105663527492855 0 255 0
0.075521059469129 -0.191473460534981 1.126775544721622 0 255 0
0.198915297321610 -0.182449377212723 1.100187056497913 0 255 0
-0.281147256858569 0.116717547886413 1.010704233826747 0 255 0
0.198600521422164 -0.256251251200402 1.072694896725725 0 255 0
0.153987113029545 -0.258970213009100 1.085735799941787 0 255 0
0.169478128402855 -0.258707642758679 1.080896024699024 0 255 0
0.029473667022361 -0.269640898058241 1.123421169845520 0 255 0
0.173727620472661 -0.256711343238197 1.079459040922837 0 255 0
0.053739595691816 -0.267580751772160 1.115990382032540 0 255 0
0.208689456823566 -0.250916865581892 1.068785884163971 0 255 0
-0.011535425289960 -0.270989933668337 1.136000214066902 0 255 0
0.199585637850520 -0.251184842613556 1.071687367893512 0 255 0
0.013247909731994 0.081371761313459 1.087819349251306 0 255 0
-0.275384332732041 -0.291075058007625 1.211517227406721 0 255 0
0.024097463400085 -0.258918123298849 1.125379884475376 0 255 0
-0.339931720664997 0.118948902712221 1.009959105531875 0 255 0
-0.233422979864049 -0.225191495069237 1.187714031593908 0 255 0
-0.242954809375992 -0.112009008898053 1.237109345503718 0 255 0
-0.069365895738286 -0.214273184349893 1.154054691790122 0 255 0
-0.122996528212905 -0.216053253292013 1.165922347614409 0 255 0
-0.255960761485439 -0.109797951204027 1.240749782902631 0 255 0
-0.114101397603609 -0.215362951099951 1.164294265064141 0 255 0
-0.131111619288086 -0.105333108815326 1.213539658762347 0 255 0
-0.104166522238242 -0.214637544575907 1.161853505972387 0 255 0
-0.184288009254043 -0.106944389331675 1.225359422778728 0 255 0
-0.173215003890979 -0.217719829791439 1.176379128583965 0 255 0
0.214186635837049 -0.249277174022139 1.067433600468482 0 255 0
-0.283614849056229 -0.109628795353276 1.246280457048055 0 255 0
-0.135213254422083 -0.102410344020963 1.214737563511380 0 255 0
-0.141641335617325 -0.215632518130805 1.170397534092065 0 255 0
-0.258854992923528 -0.106506521114442 1.242173761379724 0 255 0
-0.079352505922537 -0.209612832324952 1.157051609195839 0 255 0
-0.149151943551009 -0.099779437774600 1.217949593941979 0 255 0
0.066138677006113 -0.199892760783727 1.126114105312483 0 255 0
-0.144276792259704 -0.099165767407656 1.215284321620263 0 255 0
-0.077426371419766 -0.206980445269436 1.157481067275311 0 255 0
-0.162870826047711 -0.210799626138947 1.173789317549155 0 255 0
-0.154459241700288 -0.210096498889223 1.173263026888226 0 255 0
0.015185714771802 -0.201123994436979 1.138268273984102 0 255 0
-0.184988107721501 -0.097256046537386 1.226258223082846 0 255 0
0.163659055088233 -0.190088452488153 1.106228285011988 0 255 0
-0.136253589989007 -0.094985439349379 1.215534413957233 0 255 0
-0.108056198297220 -0.093874533070259 1.208607210385418 0 255 0
-0.079509594969192 -0.204519922628084 1.158045279310848 0 255 0
0.016460783519390 -0.199094004079339 1.137288809333498 0 255 0
0.197591384554544 -0.187855246217609 1.098854679605729 0 255 0
0.065172744839662 -0.195771108532344 1.127957145642258 0 255 0
-0.011918525023513 -0.084810406991939 1.186118259093440 0 255 0
0.087084893682658 -0.194088272784619 1.123384294783547 0 255 0
-0.234488601692996 -0.211237430754598 1.190142225997824 0 255 0
-0.196552973594878 0.158890036876670 0.874244147964751 0 255 0
-0.231618081211585 -0.274650664153550 1.199995283050177 0 255 0
-0.341835804894411 0.117446533253600 1.009312307704870 0 255 0
-0.159162705993464 -0.221277837829248 1.173113810305312 0 255 0
-0.181885165774505 -0.222041527653737 1.177866330427902 0 255 0
-0.207039560587396 0.162742769842750 0.871431471485416 0 255 0
-0.079177595074107 -0.215065795187431 1.156479377783506 0 255 0
-0.065146606689331 -0.214066736815686 1.153190880559420 0 255 0
-0.165310825937767 0.075081929670834 1.128076228267958 0 255 0
-0.180423071698173 -0.220180488170749 1.177829202292679 0 255 0
-0.150006348747723 -0.218673999340372 1.171620735532552 0 255 0
-0.295834662064205 0.118931600497594 1.002566952317709 0 255 0
0.069053890082881 -0.138871399985858 1.171371723045365 0 255 0
0.009483826894908 0.080628677949910 1.092910753841411 0 255 0
-0.335604848209777 -0.120305960599768 1.257723851992010 0 255 0
-0.253952041788817 -0.113770760631936 1.240576895189054 0 255 0
-0.067242474735552 -0.212305840070305 1.154028247979249 0 255 0
-0.217854566224955 -0.112519334215544 1.233036884281764 0 255 0
-0.212386525012732 0.123234041744818 0.987085639032876 0 255 0
-0.208922987489829 -0.111594781881260 1.230916907354828 0 255 0
-0.193073990650599 -0.110030478457616 1.226483980340655 0 255 0
-0.155681804205778 -0.108046329849645 1.219376380514676 0 255 0
-0.152580166648037 -0.107868198769121 1.218661100196988 0 255 0
-0.219983727203389 -0.110137987139027 1.233374575387457 0 255 0
-0.100165448956205 -0.104368826123822 1.206847603894105 0 255 0
-0.242744700467435 -0.218861200977055 1.190415629147529 0 255 0
-0.337376250400280 -0.113082553634346 1.257473443694517 0 255 0
-0.105036094658897 -0.104388969666975 1.208634774663171 0 255 0
-0.094986987649987 -0.103873356010098 1.204601215014812 0 255 0
-0.272168579879695 0.123573974733814 0.991724043609581 0 255 0
-0.112143640452731 -0.100814521817040 1.209640850965456 0 255 0
-0.025182665626466 -0.096786281054750 1.190039492634827 0 255 0
-0.000803729456196 -0.095379445088661 1.184400569371460 0 255 0
-0.014580091787615 -0.204209675853512 1.143898103276184 0 255 0
-0.175784355046265 -0.101492186005922 1.224004802645668 0 255 0
-0.136673348165006 -0.098764501876241 1.214880424005712 0 255 0
-0.231962934997623 -0.101614344983835 1.236155536476999 0 255 0
-0.224097455027484 -0.101206569735714 1.234319405777970 0 255 0
-0.196117513596079 -0.098084160939388 1.227540805862341 0 255 0
-0.234232029561289 -0.099052753143647 1.236476786740707 0 255 0
-0.159450972782128 -0.095959990224049 1.219526769883210 0 255 0
-0.095020929666545 -0.092265107355626 1.206186229030431 0 255 0
-0.204633065267452 -0.095250500687668 1.229939068745726 0 255 0
-0.109476300570427 -0.090551941274426 1.208619273383362 0 255 0
-0.102234018472830 -0.088770414597598 1.207096883682981 0 255 0
-0.083931963671508 -0.207408206671493 1.158138027014495 0 255 0
-0.044114210529731 -0.279251787522485 1.145162559483572 0 255 0
0.194617834777748 -0.254981135347362 1.073122699100785 0 255 0
-0.176786845301363 -0.212191826839690 1.177181532818875 0 255 0
0.180899519052116 -0.254969217406421 1.077743410114598 0 255 0
0.213343349780532 -0.188107737625182 1.094821482270212 0 255 0
-0.045047996442488 -0.267759606324777 1.146096288389814 0 255 0
-0.007356572566308 -0.200630162949815 1.143197601101238 0 255 0
-0.034072673737631 -0.201908550459348 1.149122884548631 0 255 0
-0.028798096890926 -0.199501317258347 1.148440264842046 0 255 0
-0.025043831334730 -0.199276366670954 1.147611119601299 0 255 0
0.199106131417761 -0.185511068903490 1.099385200878415 0 255 0
-0.134553889558619 -0.204477981264359 1.170970817163163 0 255 0
-0.067348456130146 -0.200263405200834 1.156183938385241 0 255 0
-0.065786688576544 -0.198506724201439 1.156688233665330 0 255 0
0.075892258688962 -0.188535065814515 1.127369438582758 0 255 0
-0.225621961016068 0.142164042660036 0.930229339699162 0 255 0
-0.171501394947914 -0.143248605831816 1.211962336052183 0 255 0
-0.215725628097131 -0.142348195417060 1.220761757983531 0 255 0
-0.004371030437178 -0.126517340200260 1.178460732334421 0 255 0
-0.191312234820270 -0.133791457428733 1.215812112104851 0 255 0
0.083351234981642 -0.121731047181617 1.161554886524689 0 255 0
0.126786140592787 -0.119790179362246 1.152745462483994 0 255 0
-0.182014229770428 -0.109413197668741 1.224577807868938 0 255 0
-0.122800214486371 -0.105604810733698 1.211774520391729 0 255 0
-0.195455475769010 -0.107801061555369 1.227564900081383 0 255 0
-0.234506752471638 -0.108389249150924 1.236912044614334 0 255 0
-0.153049486363929 -0.103263325314955 1.219140825462867 0 255 0
-0.012897731813922 -0.095635581335274 1.187525022560742 0 255 0
-0.255796161767244 -0.103513839019120 1.240205448684517 0 255 0
-0.109622850012919 -0.096942499832558 1.208482291808732 0 255 0
0.014094527752041 -0.091460098320885 1.181172646196308 0 255 0
-0.209571549548971 -0.096871685261165 1.231393034886701 0 255 0
-0.098394062381668 -0.212589271943119 1.160532889425330 0 255 0
-0.162804019346624 -0.287394819992461 1.180585209456286 0 255 0
-0.120637322438226 -0.283469417008936 1.167586505402315 0 255 0
-0.155169144093159 -0.276979622811088 1.177979020102978 0 255 0
-0.225502054152204 -0.275114275993356 1.198541247586378 0 255 0
-0.001649948192505 -0.204835238458363 1.140993444387118 0 255 0
-0.164539207531929 -0.216506744671312 1.173914893228700 0 255 0
0.075809919229176 -0.198439596696739 1.124735821751245 0 255 0
0.086932112299241 -0.198324557294322 1.121980698521891 0 255 0
0.144548192501577 -0.190463354867148 1.110718760560752 0 255 0
-0.093525611332331 -0.208126558086294 1.160329950375345 0 255 0
0.080668203797857 -0.197503224676105 1.123543308812139 0 255 0
-0.068918836016891 -0.205912698329475 1.154976650606015 0 255 0
-0.130979880039437 -0.207229760505893 1.168795738668454 0 255 0
-0.061437386304061 -0.202554773371105 1.154219937215619 0 255 0
0.135116872237571 -0.190678187255858 1.113124514923370 0 255 0
0.193343775593668 -0.186370135036095 1.100252335714641 0 255 0
-0.160045155749749 -0.207352896866069 1.175258888860359 0 255 0
0.203169216625018 -0.184336073059563 1.099106400223013 0 255 0
0.065459211897947 -0.191259259075306 1.128676933194281 0 255 0
-0.369387752701961 -0.196112102480164 1.197963232233248 0 255 0
-0.104467990927320 -0.132654087355270 1.198001330584789 0 255 0
-0.073536715112353 -0.130624745478562 1.192332317283136 0 255 0
-0.055682266716356 -0.129351551288297 1.188562528015677 0 255 0
-0.012803289375630 -0.099340572371883 1.187551318671143 0 255 0
-0.180885019135114 -0.102035425456485 1.224940001282654 0 255 0
-0.012713712736196 -0.091813953573865 1.186282300569256 0 255 0
-0.002442561827049 -0.091478113624437 1.184423250376762 0 255 0
-0.025366173053644 -0.085494387125787 1.190020092639782 0 255 0
-0.327192732963694 0.115060558425319 1.007164964955000 0 255 0
-0.136786223784249 -0.207266074978231 1.170151724150388 0 255 0
0.131662464840079 -0.190767985556553 1.114106665025376 0 255 0
0.188291465672880 -0.187008475406424 1.101419332426846 0 255 0
0.166335691200114 -0.187896258892374 1.106772991167840 0 255 0
-0.047765309650526 0.125566601535597 0.972011181006767 0 255 0
-0.040897923860220 -0.129058571303379 1.185679540828811 0 255 0
-0.225260245689140 -0.317634408595330 1.196939046698127 0 255 0
-0.214035846809825 -0.100924868358992 1.231296514708287 0 255 0
-0.075394485904691 -0.094945987915690 1.201008670807725 0 255 0
-0.172693529882995 -0.296637862411366 1.182086332743073 0 255 0
-0.226425593491312 -0.299720920773103 1.196990577705971 0 255 0
0.142151494567980 -0.259044493358870 1.089634092252618 0 255 0
-0.174231687393364 -0.275802944274237 1.182973825774600 0 255 0
-0.228897129053685 -0.267670180338966 1.199976040699285 0 255 0
0.035602189735349 -0.124362718239142 1.170340061093956 0 255 0
0.043585682437006 -0.123618643020436 1.169022735133256 0 255 0
0.079220643913346 -0.121097177377064 1.162046403838116 0 255 0
0.103660167109309 -0.120134504077187 1.157185280025684 0 255 0
0.111761297728304 -0.119332020658850 1.155820548623155 0 255 0
0.119968964711270 -0.118856785696633 1.153915481499851 0 255 0
0.128295695967321 -0.117736764858746 1.151944001820117 0 255 0
-0.340248368922271 -0.117668253807677 1.257078145977805 0 255 0
-0.328032014947847 -0.115738373643655 1.254841663949033 0 255 0
-0.212577203310109 -0.107762342277996 1.231567048411575 0 255 0
-0.163926647698827 -0.102639863499217 1.219533458972478 0 255 0
-0.115064411693318 -0.097218995419506 1.209699930626766 0 255 0
0.009590037517254 -0.091207355602203 1.182090544702968 0 255 0
0.020025283384421 -0.090263742974873 1.179927836086498 0 255 0
0.123263837677043 -0.083579858817234 1.156883775202078 0 255 0
0.155622360460362 -0.082159543094211 1.148654009507212 0 255 0
0.163882441653808 -0.081577272717878 1.146399558145249 0 255 0
-0.304830581653400 0.042955076568659 0.978503518847873 0 255 0
-0.223041470972170 -0.140349959388084 1.221743778430976 0 255 0
-0.173710643769762 -0.301776888214697 1.182195969160089 0 255 0
-0.248170550549788 -0.118735133715310 1.239218517108527 0 255 0
-0.173755004551455 -0.114317856678661 1.221897204593354 0 255 0
-0.320967693188891 -0.122768586001105 1.253528228809819 0 255 0
-0.234120813008677 -0.117061362788287 1.235764020443012 0 255 0
-0.212265869298849 -0.116169339692839 1.231211549030548 0 255 0
0.051145216723856 -0.257489394905012 1.116785107322068 0 255 0
-0.186709319689454 -0.114299155924461 1.225695231180740 0 255 0
-0.173386417141376 -0.227538709000109 1.176648510572533 0 255 0
0.022750199798072 -0.199511530988903 1.136588917228362 0 255 0
-0.114214077756307 -0.109618242018364 1.209577312447325 0 255 0
-0.154557479603420 -0.286562487891577 1.177702911777575 0 255 0
-0.128739038928061 -0.284322560822968 1.170711381559155 0 255 0
-0.154646557943500 -0.226186921233857 1.171651405767079 0 255 0
-0.024865233381548 -0.203451928014936 1.145996118424107 0 255 0
-0.001810844993706 -0.201357887056031 1.142768141707567 0 255 0
-0.333163194510551 -0.110941223188530 1.254938200146295 0 255 0
-0.102411677386581 -0.095968909294108 1.206729139655413 0 255 0
-0.072111288767022 0.081913601763325 1.103446099186522 0 255 0
-0.177523202168042 -0.215291391083255 1.178444759454020 0 255 0
-0.156496006918393 -0.214337409858918 1.173225177742897 0 255 0
-0.239722101114526 -0.218256380513998 1.190299234751873 0 255 0
-0.053883705746841 -0.207340384787712 1.152735809489984 0 255 0
-0.184917325084933 -0.126864449821964 1.219718569808342 0 255 0
-0.141435848044430 -0.110308745606750 1.215882648599132 0 255 0
-0.086891215584440 -0.106418631356105 1.204255275247645 0 255 0
0.074501796048902 -0.196326409712574 1.127256848558533 0 255 0
-0.198675757424471 -0.205529187287381 1.187779575940312 0 255 0
-0.273789478423126 -0.111860093199190 1.246587137065337 0 255 0
0.041899565149582 -0.091769169554340 1.176932745365353 0 255 0
0.003328461369705 -0.248538742436301 1.129947361337442 0 255 0
-0.192194952244911 -0.226975932017704 1.185333198780407 0 255 0
0.116870481811948 -0.203256786677642 1.117478133015697 0 255 0
