ply                 
format ascii 1.0    
element vertex 1222
property float x    
property float y    
property float z    
property uchar red  
property uchar green
property uchar blue 
end_header          
-0.145006 -0.0942301 1.87056 212 201 183 
-0.171786 -0.163435 1.90587 80 63 43 
0.166065 -0.0362008 1.9497 190 189 187 
-0.298733 0.315477 1.91398 97 69 48 
0.263302 -0.137562 2.29151 201 200 198 
0.168428 -0.0570965 1.98456 231 223 200 
0.164436 0.156361 1.27479 231 242 255 
-0.138468 -0.401245 2.13635 188 173 142 
-0.0669033 -0.409566 2.09218 165 158 142 
-0.088931 -0.423149 2.15286 45 43 56 
-0.106173 -0.397168 2.10527 197 187 160 
-0.312113 0.323541 1.92743 52 42 30 
-0.246112 0.253863 1.85853 133 123 121 
0.305011 0.299194 2.13848 45 42 49 
-0.0397533 -0.37229 2.04652 87 72 67 
0.333154 0.10503 2.32656 188 189 184 
-0.143389 -0.163245 1.9065 58 46 60 
-0.0704034 -0.422882 2.11821 132 121 91 
-0.344595 0.337525 1.95885 39 36 43 
-0.199758 -0.400912 2.19602 104 99 106 
-0.303343 0.236318 1.935 27 23 24 
0.16972 -0.0918991 1.9637 81 71 72 
0.309524 0.139844 2.25398 138 151 144 
0.118912 -0.127718 1.92315 82 70 56 
0.299024 0.314722 2.10941 194 180 154 
0.0155707 -0.399095 2.10911 182 158 148 
-0.348997 0.099623 2.03238 60 46 43 
-0.193565 -0.116833 1.91162 215 202 196 
0.219365 0.0582604 2.00956 204 201 192 
-0.0479066 -0.422498 2.1247 206 181 161 
-0.134688 -0.411756 2.13106 119 127 130 
-0.0430385 -0.37852 2.06208 66 56 54 
-0.0293937 -0.388231 2.09873 52 30 53 
-0.0579267 -0.372122 2.02402 35 31 45 
-0.151866 -0.392429 2.14783 30 24 28 
-0.0866377 0.0691025 1.80228 185 168 150 
-0.0898481 0.160569 1.73321 105 85 76 
-0.252674 0.256663 1.87391 184 162 148 
0.299964 -0.0516127 2.27508 41 40 45 
-0.121481 -0.0512805 1.89438 174 162 162 
0.177817 -0.0791686 1.99537 77 63 60 
0.158921 -0.285131 2.10767 95 90 86 
-0.203075 -0.0613608 1.90734 223 215 192 
0.274394 -0.158465 2.38678 50 53 58 
-0.201163 -0.0759271 1.91904 83 73 72 
-0.290117 -0.146304 2.06242 209 194 189 
-0.102214 0.167982 1.77191 222 201 182 
-0.0115674 -0.38891 2.05188 32 24 35 
-0.109387 -0.40382 2.12149 188 166 142 
-0.0898218 -0.393558 2.09841 65 53 39 
0.30713 0.149479 2.2025 177 166 148 
0.315287 0.131034 2.21555 178 171 165 
0.28689 0.00594071 2.21564 210 187 153 
0.200598 -0.0325443 2.0229 197 181 158 
-0.08635 0.172811 1.76668 208 189 174 
-0.191057 -0.374555 2.12297 42 42 52 
-0.0599247 0.00410297 1.77706 125 107 103 
-0.00963355 -0.405701 2.11095 158 147 125 
-0.0149965 -0.394585 2.07081 30 25 32 
0.296191 -0.0622157 2.26619 47 44 35 
-0.121586 -0.421888 2.1297 198 205 211 
-0.0758682 -0.405405 2.10719 56 44 44 
-0.155205 -0.417492 2.16157 235 238 231 
-0.102845 -0.393669 2.08596 188 166 142 
-0.0566983 -0.37719 2.04873 35 30 36 
-0.0485223 -0.39107 2.09915 36 31 35 
-0.135883 -0.37482 2.08061 35 24 28 
-0.018754 -0.405351 2.10185 34 36 35 
-0.0719879 0.106559 1.78629 78 67 71 
-0.12756 -0.145545 1.86209 226 218 205 
-0.164196 -0.0408008 1.90263 82 82 84 
0.297223 -0.00128193 2.27149 95 84 78 
-0.0482618 0.127082 1.76597 181 175 161 
0.300099 0.144631 2.1434 142 138 127 
-0.0967461 0.0721743 1.83863 195 174 153 
0.0766764 0.0785352 1.84392 169 160 153 
-0.270822 0.302518 1.89502 70 51 45 
0.240188 0.0263459 2.0463 39 34 40 
-0.0666478 0.166008 1.73845 96 82 71 
-0.0873668 -0.376636 2.04085 69 64 70 
-0.210181 -0.0788943 1.90128 187 176 174 
-0.17364 -0.0687988 1.86845 209 191 167 
0.0634176 -0.0206868 1.8864 98 98 98 
0.188939 -0.232797 2.17399 73 70 53 
-0.131233 -0.159657 1.8735 113 100 91 
-0.0752785 0.106618 1.80421 60 49 53 
0.255818 0.00377367 2.12759 84 81 72 
0.0321386 -0.114786 1.81888 117 104 95 
-0.118365 0.0626677 1.91156 44 25 19 
0.0443759 0.0199229 1.79784 214 204 192 
0.178674 -0.254963 2.14283 40 44 47 
0.214657 -0.00112045 1.98917 195 183 167 
0.331521 0.0997193 2.30343 178 180 177 
0.251229 0.0572333 2.12779 153 152 147 
-0.11654 -0.148731 1.91012 105 96 89 
-0.115715 -0.12015 1.86003 150 132 120 
-0.149077 -0.0367478 1.92156 184 171 163 
0.0670255 -0.0229651 1.85941 86 86 84 
0.205316 0.0186438 1.99312 94 94 96 
0.0341205 0.0315278 1.76366 116 105 101 
-0.0952168 0.0436118 1.79563 141 129 115 
-0.0830161 0.0436959 1.79921 166 149 139 
-0.0920647 0.0577728 1.82256 105 91 82 
0.078403 0.0711167 1.88466 93 76 66 
0.320725 0.14954 2.21804 49 46 55 
0.0878442 0.138766 1.8501 161 154 146 
-0.0899031 0.146162 1.76736 100 75 55 
-0.0328174 0.149743 1.74385 84 77 85 
-0.259685 -0.36011 2.18722 47 86 145 
0.1512 -0.0963685 1.91342 106 89 81 
0.151154 -0.0557948 1.92093 110 97 80 
-0.100573 0.206134 1.73349 159 141 129 
0.0311892 -0.0545303 1.86444 199 180 176 
0.0641185 -0.105255 1.76335 63 40 34 
0.151144 -0.107484 1.95251 79 61 49 
0.238847 -0.135674 2.32214 154 156 142 
0.165796 -0.0964472 1.97207 229 226 217 
0.296994 0.165561 2.18374 182 159 127 
0.10871 -0.150053 1.92521 115 101 92 
0.279615 0.319191 2.07775 83 79 67 
0.215787 0.0321037 2.01357 243 245 234 
0.158039 -0.0964927 1.94769 191 176 153 
0.193323 0.250883 1.94309 208 206 194 
0.289178 -0.0761471 2.33721 164 161 126 
0.256183 -0.154851 2.33637 158 147 119 
-0.206747 -0.0894826 1.91783 65 56 49 
-0.0186402 0.242272 1.78242 229 229 221 
0.282824 -0.0415136 2.28226 233 226 208 
0.272626 -0.157414 2.36307 67 67 75 
-0.190672 -0.0716016 1.90367 87 76 72 
-0.189534 -0.0614293 1.88757 219 209 199 
-0.0938491 -0.445688 2.20457 205 198 172 
-0.228064 -0.39681 2.20945 129 137 148 
0.331829 0.143941 2.27579 159 158 140 
0.0566262 0.0386842 1.81491 145 138 120 
0.159201 -0.0463914 1.98871 64 58 58 
0.307465 -0.0503134 2.32697 41 39 40 
0.155657 -0.0341674 1.98349 82 82 82 
-0.0836779 0.0958476 1.80458 87 75 77 
-0.0907258 0.216383 1.78285 197 177 153 
-0.22332 -0.417617 2.20618 52 48 45 
-0.0781813 -0.136003 1.87577 238 231 223 
-0.0648166 0.161677 1.6062 151 127 117 
-0.00720952 -0.387476 2.07001 50 31 24 
0.0190729 -0.386964 2.12212 142 124 104 
-0.139029 -0.377798 2.08935 58 45 39 
0.156141 -0.301192 2.17194 64 38 23 
0.279811 -0.0102431 2.14838 212 187 157 
-0.15848 -0.35692 2.06546 243 227 191 
0.26164 -0.133314 2.24011 229 226 207 
-0.154331 -0.0976618 1.90543 232 223 208 
-0.0164219 -0.414542 2.06231 208 173 131 
0.146214 -0.112636 1.94648 47 31 32 
0.0140774 -0.395304 2.07547 238 237 219 
-0.101431 -0.41539 2.13943 42 46 57 
0.0328264 -0.121722 1.87231 87 76 72 
0.262624 -0.00229354 2.11201 164 166 163 
0.293401 0.00995454 2.24292 97 81 55 
0.0171403 -0.399179 2.10406 185 164 145 
0.263451 0.010453 2.13582 191 196 176 
0.259646 0.0138331 2.10116 40 42 31 
0.221041 0.0171491 2.01113 218 211 183 
-0.294983 -0.149816 2.0806 221 204 188 
-0.145084 -0.408422 2.12899 225 241 231 
0.236609 -0.174021 2.31293 26 26 24 
0.248147 0.0532196 2.07434 28 36 49 
0.220243 0.0582249 1.98348 213 201 163 
-0.0951338 -0.382776 2.06139 179 176 171 
-0.349624 0.100095 2.03659 87 68 53 
0.241065 -0.174556 2.27376 198 179 147 
0.261019 0.136363 2.04635 226 218 199 
0.295973 0.162904 2.16316 182 159 127 
-0.289729 0.203592 1.91604 63 42 23 
-0.378675 0.229764 2.03075 69 49 42 
-0.141589 -0.390835 2.11627 87 69 55 
-0.378702 0.240483 2.03421 62 48 39 
-0.297858 0.221694 1.92462 91 75 60 
-0.322824 0.265465 1.97394 67 52 47 
-0.301551 0.282899 1.9137 54 39 34 
-0.24972 0.270362 1.85364 226 205 162 
-0.179392 -0.166584 1.9297 90 75 52 
0.277109 0.304799 2.01929 83 79 67 
-0.240568 0.295558 1.8677 89 72 64 
-0.333778 0.354497 1.95842 215 199 174 
-0.309566 0.388582 1.9189 113 90 56 
-0.332221 0.388816 1.9487 250 238 186 
0.183926 -0.242577 2.12909 45 45 47 
0.175874 -0.261633 2.1428 160 154 132 
-0.287469 0.195497 1.93066 82 65 47 
0.258552 0.0904563 2.07918 218 207 179 
-0.0336286 -0.378337 2.06023 216 195 166 
-0.301431 0.253269 1.93606 51 33 9 
-0.0245113 -0.375871 2.03636 198 177 146 
0.157531 -0.0978842 1.95628 191 176 153 
-0.157346 -0.180262 1.92198 101 93 82 
0.218224 0.000750146 1.99436 252 242 207 
0.273668 -0.0795827 2.16431 215 211 176 
0.282543 -0.085777 2.27703 37 33 21 
0.296764 -0.0841503 2.27227 32 35 40 
-0.297016 0.345717 1.91999 204 193 171 
0.305601 0.297122 2.0955 161 142 112 
0.271279 -0.0562837 2.21873 19 15 14 
0.285521 0.159332 2.12965 181 157 131 
0.0226009 -0.154767 1.9156 147 130 112 
-0.0240515 0.167394 1.74639 190 175 154 
-0.0715782 -0.398738 2.0755 195 183 169 
-0.0482638 -0.397813 2.07675 168 144 118 
0.368138 0.199294 2.31008 108 128 129 
-0.120066 -0.421946 2.1542 52 42 53 
-0.0314124 -0.38492 2.03705 155 139 123 
0.00712006 -0.381299 2.03575 252 255 232 
0.235418 -0.171445 2.28801 54 55 49 
0.286204 0.151132 2.11442 231 219 195 
0.298399 0.137478 2.15263 37 39 52 
-0.175996 -0.377352 2.1124 235 236 238 
-0.279629 0.276571 1.90127 95 77 67 
-0.282267 0.273281 1.88044 254 237 185 
0.291905 -0.0472827 2.25397 212 206 170 
-0.259656 0.301335 1.87106 213 192 165 
0.159537 -0.282912 2.10188 211 202 169 
0.245468 0.0509616 2.0333 35 34 32 
0.275006 0.069811 2.11943 182 180 165 
0.27821 0.0126091 2.17508 47 39 26 
-0.192584 -0.381814 2.14888 44 51 61 
-0.285012 0.321968 1.89817 51 37 26 
0.218588 -0.00645341 2.00957 198 196 184 
-0.276562 0.320693 1.88677 242 227 196 
-0.365275 0.352972 1.97918 66 48 34 
0.217763 -0.0608459 2.07578 159 170 164 
0.167089 -0.0542394 1.91893 248 245 240 
-0.11282 -0.0515068 1.85943 240 226 213 
0.0121847 -0.116372 1.88817 80 64 51 
0.165806 -0.0961731 1.97 225 222 215 
0.15481 -0.0952754 1.94035 215 199 183 
-0.170791 -0.167529 1.91262 66 53 44 
-0.324903 0.324525 1.94758 213 183 129 
-0.339595 0.097812 2.0114 71 54 38 
-0.0226698 -0.408347 2.08386 49 46 39 
0.0168351 -0.388125 2.05078 94 91 84 
-0.345757 0.256522 1.98465 91 69 45 
0.309662 -0.0157842 2.22709 157 158 150 
0.197184 0.266608 1.94758 175 170 166 
-0.135788 -0.0516388 1.88198 202 196 182 
0.292953 -0.088524 2.24629 95 90 87 
-0.0219585 -0.399271 2.11087 189 160 130 
0.230227 -0.0383077 2.13473 166 175 158 
-0.319928 0.179655 1.95977 108 86 62 
-0.33176 0.354931 1.94697 77 59 39 
-0.25336 0.268813 1.88747 222 205 187 
-0.297111 0.250899 1.92503 51 33 9 
-0.3435 0.300127 1.97199 56 42 33 
0.0245527 -0.375778 2.094 78 58 33 
0.349466 0.118813 2.33395 218 209 180 
-0.0593324 -0.400012 2.05693 218 206 182 
-0.112987 -0.412602 2.09905 203 213 215 
-0.0732029 -0.408102 2.10092 62 52 43 
0.283365 0.0262474 2.16473 226 209 181 
-0.161684 -0.425442 2.1892 225 241 231 
-0.150967 -0.420459 2.18468 109 92 84 
0.214702 -0.0027089 2.02267 143 140 107 
0.35855 0.198905 2.26765 134 134 132 
-0.117198 -0.398011 2.08983 90 95 98 
0.309161 0.289287 2.11205 215 217 195 
0.218629 -0.000133659 2.03494 197 190 162 
0.276867 0.0707125 2.14959 145 143 122 
0.0229272 -0.155986 1.90124 142 119 113 
-0.0582742 -0.3714 2.02387 83 64 66 
0.234361 -0.178025 2.26094 39 41 40 
-0.00375537 -0.375656 2.04509 214 195 163 
-0.0868402 -0.374029 2.03791 60 51 54 
0.3008 0.138578 2.18463 40 47 57 
-0.218164 -0.0929664 1.93188 100 82 72 
-0.18569 -0.365383 2.09405 54 50 41 
0.157156 -0.290588 2.13648 211 202 169 
-0.0942851 -0.40275 2.09624 42 44 59 
0.239273 0.020385 2.09244 55 52 47 
-0.188288 -0.39022 2.15697 158 165 191 
0.27357 -0.00159418 2.2032 190 183 155 
0.0440383 0.0170581 1.78727 221 214 208 
0.288459 0.224598 2.08427 186 188 166 
0.184412 -0.040849 1.97074 77 72 68 
-0.0251273 -0.430313 2.1168 187 167 134 
0.287814 0.229302 2.06082 69 62 54 
-0.0588025 0.117902 1.7903 162 159 150 
-0.102591 -0.38654 2.08308 70 65 61 
-0.152826 -0.393738 2.15136 44 39 45 
0.295586 -0.0186683 2.1807 143 127 104 
0.161697 -0.290856 2.16129 73 82 113 
0.306303 0.283638 2.07932 166 170 155 
-0.30601 0.286479 1.94056 195 175 142 
0.188202 -0.232005 2.06996 178 171 161 
-0.0495507 0.155475 1.80092 233 225 214 
0.374771 0.213512 2.39357 167 180 162 
-0.134746 -0.150112 1.89807 224 212 190 
0.0672428 0.085207 1.85225 178 167 147 
0.242764 -0.169822 2.2591 157 134 102 
-0.0797704 0.0682381 1.77915 245 229 216 
0.252642 0.0568785 2.0836 113 109 84 
-0.218601 -0.0825166 1.94633 185 180 161 
-0.148442 -0.0498066 1.90658 88 79 82 
0.244859 -0.0560799 2.13674 39 40 44 
0.28172 0.0109532 2.21476 59 52 42 
0.285851 -0.0484389 2.20407 135 136 122 
0.272035 -0.000739189 2.17129 190 183 155 
0.301784 -0.0278687 2.25107 191 185 153 
0.222419 -0.010184 2.06962 46 42 41 
0.292862 0.243256 2.11128 150 150 126 
0.250496 -0.144039 2.21741 184 180 142 
0.199293 -0.0329887 1.98748 184 168 145 
0.203374 -0.0569841 2.0028 162 149 130 
-0.183293 -0.170962 1.94351 80 65 60 
-0.293244 0.317268 1.91772 172 149 117 
-0.0166312 -0.400556 2.06284 122 107 88 
-0.031363 -0.391226 2.10903 79 69 67 
-0.175656 -0.361315 2.07204 45 49 60 
-0.205909 -0.376295 2.13851 129 137 148 
-0.217374 -0.0812814 1.94233 189 182 166 
0.153826 -0.298112 2.16388 196 189 160 
0.293155 0.0108867 2.19774 122 106 81 
-0.155885 -0.0524457 1.93448 91 83 70 
0.293895 0.131242 2.12086 54 55 60 
-0.207354 -0.0633721 1.92275 221 213 194 
-0.162022 -0.0463951 1.92664 193 189 178 
0.284759 -0.0454194 2.16586 172 167 148 
0.297188 -0.0292937 2.22574 177 173 148 
0.217154 -0.00568726 2.05607 220 216 189 
-0.112898 -0.36336 2.02734 39 39 39 
-0.0923542 -0.396966 2.10918 84 66 64 
-0.0755641 0.151006 1.68739 184 166 152 
-0.0654386 -0.42757 2.13369 57 56 35 
-0.0335738 0.172 1.78486 207 189 187 
0.326033 0.0984472 2.24798 158 163 157 
-0.307818 0.31073 1.9101 215 192 150 
-0.0237987 -0.422133 2.10815 201 192 163 
-0.104518 -0.405821 2.0926 50 50 58 
-0.0585289 -0.400874 2.09198 159 145 119 
-0.0121235 -0.389388 2.08631 220 195 165 
-0.110498 -0.348559 1.9869 48 42 44 
-0.240774 -0.0862476 2.00821 184 177 161 
0.0123404 -0.117822 1.90236 104 84 77 
-0.169233 -0.0412121 1.91881 72 74 73 
0.221169 -0.0116424 2.04372 49 52 45 
0.276973 0.0100891 2.15568 35 27 14 
0.235515 0.013693 2.07587 147 147 137 
-0.0944176 0.171104 1.82177 226 216 204 
0.288701 0.0272189 2.25037 217 198 168 
0.06983 0.0835851 1.82824 205 195 185 
-0.0227647 -0.363312 2.00712 234 208 181 
-0.181878 -0.0744843 1.87649 100 80 69 
0.0614934 0.0343127 1.86189 84 70 61 
0.289313 -0.0191928 2.19046 194 181 162 
0.220651 -0.0569371 2.06274 99 98 93 
0.201559 -0.0247316 1.97268 183 175 164 
-0.122234 -0.156714 1.84494 129 115 104 
-0.0525879 -0.142506 1.86087 234 230 221 
-0.0826004 -0.410492 2.09704 222 207 174 
0.29393 -0.0589389 2.21814 123 121 106 
0.331484 0.102186 2.28824 132 125 109 
-0.0651907 -0.410428 2.1701 47 38 41 
-0.0393896 0.171963 1.79479 189 173 158 
0.0634789 0.0895245 1.89507 180 165 146 
0.0736478 0.0793442 1.86745 215 205 195 
-0.110058 -0.404864 2.07783 209 222 230 
0.235735 0.0134015 2.02834 166 164 152 
0.284803 0.0254896 2.23266 239 219 186 
0.251639 0.00529615 2.01831 71 65 53 
-0.0852718 0.0559576 1.79923 109 97 85 
-0.0750787 0.0595348 1.80255 72 58 47 
0.0855183 0.0701205 1.8407 97 78 71 
0.193878 -0.245925 2.14789 167 152 119 
0.272058 -0.0029393 2.14593 205 180 140 
-0.125332 -0.14488 1.84908 211 203 184 
-0.0635971 -0.148272 1.89812 237 227 225 
0.144642 -0.110367 1.89677 53 35 21 
-0.198619 -0.076678 1.87073 181 169 155 
0.218717 -0.0554661 2.01951 163 170 154 
-0.154196 -0.0425944 1.85849 74 73 79 
-0.202672 -0.0390939 1.88173 175 163 147 
0.305247 -0.0480468 2.28388 41 39 40 
0.0712453 -0.0193542 1.83343 88 88 96 
0.02886 0.0326231 1.78939 120 103 96 
0.236236 -0.193128 2.31727 45 43 48 
-0.121242 -0.371369 2.05137 34 25 26 
0.180073 -0.247884 2.10851 55 52 45 
0.192427 -0.264753 2.26147 222 211 181 
0.19032 -0.223045 2.11855 68 69 51 
-0.0767377 -0.120888 1.87026 128 115 98 
0.196261 -0.04356 1.93709 52 39 31 
0.270637 -0.00120724 2.10506 222 202 165 
0.297225 -0.00161462 2.22731 53 52 50 
0.28575 0.0212713 2.21249 202 178 142 
0.0427016 0.0268958 1.87772 200 193 177 
0.0653124 0.0347489 1.84643 93 78 71 
0.0486672 0.0398842 1.86934 145 138 120 
-0.0903241 0.0450244 1.82415 186 171 150 
-0.0599298 0.0415031 1.76529 137 124 107 
0.251161 0.0567137 2.12532 135 155 143 
0.0822542 0.0689254 1.85454 101 85 70 
-0.0790702 0.0937822 1.78664 87 75 77 
0.294728 0.133483 2.04693 195 188 160 
-0.0824902 0.142675 1.7419 108 79 61 
-0.0828721 0.176204 1.80098 107 91 78 
-0.210991 -0.405046 2.16657 52 48 45 
0.270232 0.107708 1.92929 60 55 59 
0.227958 -0.185146 2.24178 40 44 47 
-0.0596272 -0.127309 1.80694 238 231 223 
0.328921 0.0973818 2.26628 137 142 122 
0.619296 0.420959 3.22425 118 170 209 
0.0407545 0.00855455 1.80918 136 127 112 
-0.0653749 0.00510384 1.78283 131 112 97 
-0.0861392 0.197287 1.68993 186 174 162 
-0.959446 0.565547 2.83768 162 194 215 
0.154821 -0.0527613 1.86178 98 94 85 
-0.277804 0.277203 1.90425 109 86 68 
0.170084 -0.0822239 1.96598 53 48 44 
0.294991 0.321701 2.09181 73 71 74 
0.310942 0.138646 2.25319 136 143 149 
-0.101467 0.177186 1.80065 202 181 160 
0.273707 -0.160121 2.39934 47 51 60 
-0.186706 -0.089455 1.87919 93 76 68 
-0.0976414 0.187612 1.793 124 96 84 
-0.070217 -0.133808 1.85686 238 233 227 
0.0516794 -0.170325 1.92723 150 133 113 
0.28617 -0.0751698 2.2942 181 167 130 
-0.256382 0.309762 1.86708 202 185 155 
-0.320398 0.334653 1.94357 91 80 78 
-0.158537 -0.421338 2.17564 212 225 216 
-0.0250167 -0.377397 2.06905 60 46 37 
0.00224291 -0.383984 2.07462 57 42 21 
0.112376 -0.146571 1.89859 80 74 58 
0.621577 0.564898 3.14785 73 73 71 
0.632537 0.562842 3.14114 54 74 98 
-0.291107 0.320247 1.89377 196 187 158 
-0.259883 0.277647 1.88388 255 239 219 
-0.10732 -0.388864 2.09868 58 44 41 
0.615566 0.557614 3.10979 82 78 75 
0.155345 -0.0934997 1.93276 190 179 157 
0.0154161 -0.114465 1.86984 74 65 50 
0.19101 -0.20688 2.09466 198 187 155 
0.175619 -0.260152 2.13604 160 161 143 
-0.134211 -0.0511367 1.87565 133 131 118 
-0.0267298 -0.412674 2.09727 94 91 86 
-0.24894 0.291442 1.84625 114 100 91 
0.134145 -0.113189 1.9269 199 187 165 
-0.0612789 -0.141669 1.86969 131 122 107 
0.256015 -0.158605 2.34333 50 47 32 
0.300124 -0.0921689 2.30719 47 53 53 
0.272768 -0.0875653 2.29044 77 70 60 
0.131432 -0.130042 1.9487 217 208 193 
-0.020211 -0.421995 2.10103 163 148 115 
0.0139832 -0.405034 2.13021 187 172 129 
-0.128771 -0.413151 2.14294 35 32 51 
-0.151159 -0.394073 2.13118 119 126 132 
-0.110891 -0.0459341 1.88675 88 77 81 
0.311102 0.139788 2.21638 138 139 123 
-0.00364913 -0.401398 2.10674 145 145 117 
0.0912801 -0.13776 1.92605 126 116 106 
0.289837 -0.0207564 2.23663 153 146 120 
-0.0390207 -0.404987 2.09421 189 176 134 
0.321911 0.159522 2.31556 64 66 63 
0.1883 -0.225098 2.14054 65 65 55 
-0.0160449 -0.397309 2.08137 44 39 45 
-0.0566161 -0.154912 1.87325 122 115 99 
0.319041 0.145216 2.19667 62 68 64 
0.292777 -0.00135498 2.21599 105 94 72 
-0.0741496 0.1584 1.74827 250 243 227 
-0.164001 -0.040864 1.90131 82 82 84 
0.333712 0.104033 2.3281 155 147 126 
-0.0760032 0.160178 1.7579 245 238 220 
-0.137581 -0.384366 2.10685 159 144 125 
-0.198895 -0.0650179 1.90927 217 208 191 
-0.0704801 0.104635 1.77745 192 177 156 
0.303003 0.144862 2.17083 222 221 190 
0.142354 -0.11235 1.91819 73 60 51 
0.060892 0.0404835 1.78656 156 149 131 
0.144726 -0.028517 1.9369 230 224 210 
-0.216941 -0.0811058 1.92191 180 171 156 
-0.056795 -0.122875 1.85894 105 91 78 
-0.144867 -0.037025 1.90294 138 126 110 
0.0600216 0.0416179 1.80342 158 151 135 
-0.0726375 -0.117711 1.84895 168 154 145 
-0.144252 0.245382 1.92863 177 162 141 
0.024197 -0.0495847 1.84617 112 109 100 
0.204793 0.0186214 1.98552 88 93 89 
-0.243073 -0.343542 2.12437 60 98 145 
0.151553 -0.0566717 1.93652 101 93 74 
0.0443318 -0.117958 1.87875 214 207 188 
-0.112834 0.194749 1.78911 189 171 157 
-0.0812174 0.0427497 1.7897 178 167 145 
0.293573 -0.0905934 2.38085 172 160 134 
-0.411525 0.253264 2.08261 79 71 68 
-0.302325 0.221086 1.96481 81 64 46 
0.287578 -0.0813216 2.28119 181 178 143 
0.675815 0.5513 3.08917 198 207 214 
0.266442 -0.0830014 2.33081 47 43 40 
-0.404405 0.240767 2.08543 102 79 71 
-0.194144 -0.371114 2.11661 62 56 58 
0.286519 -0.0770892 2.33267 181 167 130 
0.28541 0.159445 2.12674 167 150 122 
-0.112444 -0.411847 2.11918 37 42 46 
0.161252 -0.283146 2.12728 52 43 28 
-0.0304477 -0.399131 2.09879 156 141 108 
-0.0120221 -0.384019 2.05561 182 153 123 
0.175932 -0.0863483 1.99271 200 188 174 
-0.0324805 -0.376761 2.05508 216 195 166 
0.0203986 -0.383752 2.11369 142 126 101 
-0.367292 0.408532 2.01723 60 51 44 
0.381672 0.230376 2.40489 176 189 163 
0.242631 -0.188843 2.40319 212 194 154 
0.287826 -0.0409428 2.27354 222 215 189 
0.215959 0.0341645 1.98905 216 216 204 
0.29241 -0.0531591 2.38519 184 181 150 
0.245849 -0.0575361 2.28047 43 46 35 
0.377807 0.211524 2.40222 166 168 155 
0.0279406 -0.368094 2.07319 205 183 142 
0.177517 -0.044125 1.96029 207 200 192 
-0.333955 0.210544 2.00765 78 65 49 
-0.136177 -0.092983 1.85024 254 247 228 
0.296353 0.163776 2.17125 209 195 169 
0.221136 0.0233804 1.99003 226 216 204 
0.260704 0.0138162 2.14218 58 64 64 
0.128769 -0.161248 1.93016 223 223 213 
0.165628 -0.0358558 1.956 190 189 187 
0.280212 0.0117141 2.2284 54 43 21 
0.264244 -0.142389 2.34072 234 232 211 
0.0561706 -0.164557 1.88275 124 106 94 
0.200055 -0.162565 2.10779 174 162 136 
0.258708 -0.152685 2.39798 255 246 217 
0.310275 0.140334 2.26378 170 176 172 
-0.148212 -0.176069 1.894 100 90 78 
0.269002 0.115595 2.13077 166 153 119 
0.350668 0.120069 2.35672 226 221 201 
0.685556 0.550684 3.07885 211 226 223 
-0.322978 0.296084 1.97114 247 225 178 
0.183231 -0.251775 2.20963 183 172 150 
0.312365 0.299038 2.16042 232 230 215 
0.316606 -0.0160461 2.32294 175 180 158 
0.273574 -0.0136367 2.22134 192 176 140 
0.253854 -0.173607 2.34444 56 46 47 
0.269238 -0.0057153 2.18548 55 52 47 
0.217345 0.0675514 1.98399 199 196 181 
0.217507 0.0667003 1.99432 249 241 218 
-0.374426 0.199332 2.08077 120 104 91 
0.302327 -0.0369352 2.2759 54 51 44 
0.17962 -0.0811438 1.96349 71 66 60 
0.186725 -0.0375533 1.96046 79 75 72 
-0.292739 0.295635 1.95351 255 239 219 
0.336186 0.0989524 2.37165 155 162 146 
-0.146535 -0.0427514 1.87423 189 185 174 
0.273236 -0.0715957 2.28305 53 55 42 
-0.133661 -0.439614 2.18494 243 252 247 
-0.114574 -0.419448 2.13144 25 28 37 
-0.149027 -0.418548 2.17566 78 75 66 
0.761499 0.614215 3.31467 190 199 196 
0.291496 0.234629 2.13211 190 186 159 
0.258236 -0.147134 2.33015 198 194 165 
0.389378 0.242153 2.48851 178 188 154 
0.282674 -0.0415734 2.25897 250 241 210 
0.679468 0.567652 3.05569 201 215 216 
0.689786 0.536126 3.05459 208 196 198 
0.184404 -0.244361 2.16932 149 149 113 
-0.0752076 -0.374717 2.03636 61 47 36 
-0.407127 0.253045 2.09547 90 72 68 
0.188572 -0.213211 2.13456 198 187 155 
0.0389052 -0.227472 1.96013 83 70 53 
-0.271844 0.317176 1.87599 81 61 52 
0.251298 -0.161847 2.39858 181 175 139 
0.29376 0.253364 2.15598 181 162 129 
0.267705 0.111766 2.0939 189 181 158 
0.173278 -0.266908 2.16796 160 161 143 
0.200446 -0.159861 2.08438 157 145 119 
0.22439 -0.0615555 2.16402 152 157 134 
-0.129231 -0.0507373 1.86183 133 131 118 
0.246163 -0.0592988 2.26499 56 59 68 
0.291424 -0.0523056 2.36168 184 181 150 
0.291705 0.232417 2.1497 179 174 145 
-0.198172 -0.375041 2.12953 63 60 67 
0.199749 -0.153462 2.06951 69 59 49 
0.273404 -0.01821 2.25889 102 78 54 
0.20268 -0.123031 2.04996 110 97 78 
-0.238096 0.285748 1.82364 114 100 91 
-0.0495727 -0.192971 1.91195 90 76 73 
0.295305 -0.0218518 2.32259 212 197 174 
0.398399 0.386701 2.41299 147 131 105 
0.25321 -0.178873 2.39926 56 46 47 
0.360018 0.233397 2.42187 171 169 144 
-0.00778448 -0.37846 2.06119 203 197 165 
-0.342125 0.347107 1.98512 97 83 80 
0.266228 0.011278 2.19619 186 183 168 
0.302765 -0.101015 2.45541 47 53 53 
0.154125 -0.0923807 1.89966 145 134 116 
0.201134 -0.129412 2.14743 116 116 108 
0.00534234 -0.417941 2.17634 187 172 129 
-0.02761 -0.414749 2.17958 181 158 117 
-0.138062 -0.406381 2.13502 85 81 78 
0.246498 -0.0607889 2.2417 48 51 56 
0.172112 -0.0529331 1.94572 208 206 185 
-0.115212 -0.37643 2.06521 92 83 86 
-0.186275 -0.366084 2.0959 63 60 67 
0.177199 -0.0848239 1.94948 150 136 123 
-0.0713236 0.154472 1.71034 94 82 70 
-0.164644 -0.162758 1.88776 114 97 81 
-0.127853 -0.156286 1.8577 50 37 31 
0.140134 -0.115491 1.99557 70 61 46 
0.293048 0.0111777 2.28734 208 194 159 
-0.29837 0.329145 1.92745 92 79 71 
-0.0854434 -0.386968 2.07768 82 71 67 
0.235636 0.0160522 2.08437 203 206 187 
0.258163 -0.151593 2.37985 255 246 217 
0.253909 -0.164033 2.30396 164 150 123 
0.300415 0.321 2.13412 181 174 155 
-0.296849 0.286211 1.9429 129 114 93 
0.248187 -0.0249881 2.16137 182 182 156 
0.074799 -0.1836 1.94426 118 106 90 
-0.0379386 -0.369495 2.03682 56 47 50 
0.199671 -0.16021 2.07465 170 154 121 
0.295377 -0.0114381 2.29572 145 131 94 
0.160919 -0.0878018 1.94334 151 142 127 
0.173467 -0.279762 2.21027 48 45 40 
0.279614 0.0760753 2.2414 222 217 195 
0.120751 -0.12572 1.90247 96 82 69 
-0.0591953 -0.429777 2.18164 189 176 134 
-0.119114 -0.422254 2.15005 38 40 52 
-0.0821678 -0.383717 2.06572 82 71 67 
-0.0161829 -0.367981 2.02873 53 49 38 
0.651629 0.531839 2.93009 204 214 216 
-0.152848 -0.0499491 1.91924 88 79 82 
-0.112996 -0.141125 1.82884 224 218 196 
-0.0651588 -0.138239 1.92553 104 95 88 
0.314581 0.308136 2.19752 193 179 140 
0.241501 -0.137398 2.35525 134 133 113 
0.157449 -0.103865 1.97924 76 66 54 
0.770988 0.63088 3.26856 203 220 227 
0.245438 -0.0591942 2.18033 43 47 50 
-0.218882 -0.0630272 1.94738 223 215 192 
0.191932 -0.229015 2.12348 106 100 74 
0.155336 -0.0356652 2.03297 83 82 77 
0.333241 0.147664 2.32057 117 117 105 
-0.0684568 0.121707 1.8228 162 159 150 
0.273459 -0.15449 2.35076 50 53 58 
0.251326 -0.149598 2.26541 174 170 143 
0.241576 -0.0762471 2.37958 170 165 143 
0.258782 -0.166883 2.3543 83 79 67 
-0.113729 -0.427931 2.17175 82 86 87 
-0.153382 -0.415208 2.1548 125 148 154 
-0.00229312 -0.372722 2.0332 202 179 148 
-0.0502683 -0.386831 2.09251 57 53 52 
-0.0141854 -0.364669 2.0179 53 49 38 
-0.0951086 -0.431587 2.19348 59 51 40 
0.181729 -0.27449 2.31438 160 147 115 
0.193935 -0.253571 2.2196 147 145 130 
-0.105275 -0.13753 1.80005 223 217 201 
0.273459 -0.15449 2.35076 50 53 58 
-0.20646 -0.0735107 1.96118 210 199 181 
0.32419 0.133106 2.16955 122 126 103 
0.244627 -0.0598502 2.19072 51 53 52 
-0.10481 -0.0465896 1.86021 89 82 76 
0.303016 -0.0529238 2.27946 50 54 57 
0.249091 -0.127526 2.27738 75 72 57 
0.250665 -0.14548 2.40612 57 62 58 
0.0637579 0.0284403 1.79957 166 167 153 
0.182233 -0.243197 2.09937 52 52 52 
-0.0579858 -0.364744 2.02419 107 78 60 
0.321112 0.132671 2.266 97 99 78 
-0.0674399 -0.365702 2.00224 103 91 79 
-0.0488635 -0.369052 1.99572 58 61 70 
-0.0153531 -0.394476 2.10478 207 189 149 
-0.065835 -0.389265 2.09091 47 42 49 
-0.0286754 -0.362661 2.00086 47 43 44 
-0.0406842 -0.390095 2.09812 193 174 142 
0.0261156 -0.110266 1.82734 109 99 87 
0.0665086 0.0331641 1.82728 84 71 63 
0.0612518 0.0888518 1.88865 189 174 155 
0.321431 0.1481 2.19047 57 63 63 
0.279295 -0.000986791 2.32789 177 159 119 
0.217837 -0.00376859 1.93594 234 229 207 
0.381108 0.228224 2.48157 173 168 148 
0.303594 -0.0305534 2.32518 135 134 106 
0.177367 -0.0439135 2.00498 153 142 110 
0.2435 -0.0718594 2.21437 154 152 131 
-0.252027 -0.071347 2.04913 209 202 183 
-0.0817483 0.110782 1.82057 110 95 90 
-0.130288 -0.427886 2.21841 64 64 62 
-0.166229 -0.410331 2.20158 159 144 125 
0.0790822 0.0803309 1.78367 183 172 154 
-0.192435 -0.0459772 1.97023 80 81 83 
0.302385 -0.0472751 2.2326 50 55 58 
-0.0078264 -0.359272 1.99085 96 117 148 
0.310908 -0.0201628 2.38328 80 86 76 
0.317147 0.132831 2.2067 170 171 140 
-0.0521534 0.0981433 1.72296 192 177 156 
-0.062736 0.123973 1.79931 192 184 171 
0.389842 0.234932 2.46383 147 148 132 
0.160231 -0.0972435 1.96623 87 75 63 
0.264248 -0.148223 2.24528 54 59 53 
-0.0666775 -0.114942 1.83588 109 98 80 
0.218498 -0.058794 2.10038 74 70 67 
0.0344785 0.0205918 1.85886 204 193 175 
0.0217715 0.0338108 1.81926 116 105 101 
0.193562 -0.248775 2.15344 125 120 91 
0.214781 -0.0012403 1.97115 206 203 186 
-0.101078 0.100672 1.86167 102 92 93 
-0.067639 0.104848 1.77658 87 73 72 
-0.0560064 -0.112512 1.79411 168 154 145 
0.383572 0.202205 2.40879 58 65 73 
-0.0693672 0.169249 1.75487 127 112 105 
-0.211085 -0.0840311 1.96811 95 83 61 
0.166985 -0.0582379 1.97257 126 124 112 
0.255145 0.00417774 2.09728 88 89 75 
0.326943 0.0959976 2.23716 168 179 175 
0.139787 -0.11806 1.9503 69 54 59 
0.274509 -0.133901 2.25811 121 122 106 
0.147406 -0.101434 1.97433 107 96 74 
0.228617 -0.074167 2.10366 47 51 50 
0.0657205 -0.0434102 1.66315 112 109 100 
0.205644 0.017785 1.96931 88 93 89 
0.148078 -0.0581958 1.97057 101 93 74 
0.0172507 -0.0572549 1.94161 181 168 149 
0.168719 -0.271681 2.11877 174 163 143 
0.34431 0.202953 2.22842 59 62 69 
-0.126507 0.200545 1.82559 189 171 157 
0.214685 0.061937 2.09409 247 240 214 
0.679859 0.56763 3.0447 227 234 226 
0.373134 0.229548 2.43419 54 59 63 
0.00100263 -0.41421 2.15002 153 148 129 
0.251941 -0.159532 2.3786 181 175 139 
0.28435 -0.0889406 2.33063 52 48 49 
0.273312 -0.0597288 2.29881 43 38 35 
0.237047 0.0182808 2.1444 210 210 186 
0.292054 0.161555 2.1918 182 166 140 
0.214401 0.0323145 2.02247 234 237 228 
0.203097 -0.12333 2.0581 72 63 48 
0.317662 0.151088 2.29878 175 177 153 
0.277165 0.00717866 2.26551 70 63 55 
0.27597 0.058913 2.22437 188 186 161 
0.125684 -0.133348 1.93777 73 65 52 
0.216586 0.0686195 1.99118 199 196 181 
0.645038 0.604727 3.30765 73 73 71 
0.655581 0.600588 3.29295 54 74 98 
0.315762 -0.0604227 2.36686 179 178 157 
0.22357 -0.140432 2.29756 190 196 182 
0.278084 0.147502 2.13875 185 178 152 
-0.169169 -0.4313 2.20842 212 225 216 
-0.120351 -0.403787 2.13778 59 52 46 
0.607965 0.645145 3.35543 74 85 105 
0.284953 -0.0460714 2.30388 49 49 49 
0.646964 0.610874 3.32409 82 78 75 
0.657138 0.606829 3.30975 48 64 89 
0.353391 0.123704 2.39714 226 221 201 
-0.272113 0.275441 1.89134 106 93 84 
0.24578 -0.0597244 2.28919 56 59 68 
0.257214 0.0211584 2.19627 167 165 144 
0.348835 0.113363 2.48182 192 185 166 
0.253115 -0.179809 2.41214 56 46 47 
0.279222 -0.0425549 2.32433 182 180 165 
0.317926 0.147793 2.28556 190 189 171 
0.289269 0.163847 2.21892 226 213 181 
0.281435 0.0343827 2.24132 87 83 71 
0.294014 0.326416 2.12348 76 78 73 
0.269659 -0.0077149 2.26235 77 76 72 
0.663901 0.643889 3.3733 70 77 83 
0.161779 -0.034002 1.96171 83 82 77 
0.252374 -0.177415 2.45186 164 150 123 
0.310064 0.155282 2.25832 194 190 155 
-0.36812 0.236036 2.01873 94 77 67 
0.167181 -0.0883679 1.97934 71 63 60 
-0.0694181 -0.430805 2.1889 59 42 35 
-0.0688927 -0.405076 2.11777 211 198 153 
0.280503 0.0129747 2.2819 59 51 32 
0.250042 -0.141754 2.36926 57 62 58 
-0.103629 -0.0458047 1.86756 88 81 88 
-0.0538488 -0.41129 2.08986 64 66 55 
0.140842 -0.113322 1.96119 70 51 45 
0.242739 -0.064589 2.3242 43 47 50 
0.161962 -0.088504 1.95623 126 104 83 
0.294258 -0.000728395 2.28068 97 94 75 
-0.0466525 -0.450731 2.15989 34 34 36 
-0.175899 -0.437059 2.22861 125 148 154 
-0.0180074 -0.381144 2.07586 125 110 87 
-0.144387 -0.150011 1.90852 223 217 201 
0.304517 -0.0551044 2.35169 50 54 57 
0.25139 -0.140674 2.35576 57 62 58 
-0.0690509 -0.377697 2.06595 107 78 60 
0.656476 0.615293 3.33454 73 75 87 
-0.0501652 0.113694 1.76345 72 71 67 
0.31217 -0.0180538 2.33599 98 94 85 
-0.168825 -0.413785 2.20948 159 144 125 
0.285053 0.023953 2.3022 199 175 139 
0.0522216 0.0407763 1.82801 156 149 131 
0.0502319 0.0187089 1.77857 204 193 175 
0.241165 0.0252133 2.08716 50 52 49 
0.331586 0.101582 2.36173 187 199 199 
0.00294491 0.225521 1.7123 240 238 226 
-0.233958 -0.0730341 1.99706 110 99 93 
0.0923584 0.134958 1.81815 139 133 117 
0.269011 -0.145551 2.22424 56 63 56 
0.0404466 -0.120185 1.89773 214 207 188 
-0.111071 -0.122083 1.93632 106 95 73 
0.279291 -0.0837582 2.236 211 204 178 
-0.119834 -0.386991 2.11174 82 66 50 
0.04987 -0.171772 1.93679 150 133 113 
-0.285296 0.213564 1.92888 81 64 46 
0.287522 -0.0810385 2.27603 181 178 143 
-0.284468 0.256125 1.92359 246 237 208 
-0.140025 -0.418467 2.15834 230 240 239 
-0.0606182 -0.392319 2.07703 185 177 166 
-0.264294 0.303649 1.89926 75 64 58 
0.296209 0.162604 2.16589 209 195 169 
0.147247 -0.103765 1.90629 234 219 188 
-0.113403 -0.1613 1.87299 68 60 49 
0.264539 -0.137269 2.28381 234 232 211 
0.159482 -0.28838 2.12973 217 211 185 
-0.359436 0.102564 2.06132 107 89 65 
0.189288 -0.212189 2.1129 201 190 158 
0.299008 -0.0856043 2.29767 40 44 47 
-0.0782177 -0.424827 2.1805 172 160 144 
0.273309 -0.011256 2.17953 184 170 133 
0.575608 0.559332 3.10837 56 70 96 
0.282859 0.0242993 2.20327 211 200 180 
0.0790203 -0.177809 1.91711 89 76 70 
0.15651 -0.0927047 1.92094 190 179 157 
0.290542 -0.0500728 2.2883 184 181 150 
-0.277144 -0.150112 2.03937 92 76 63 
0.312514 0.136366 2.1757 176 175 155 
0.353976 0.216621 2.30851 171 169 144 
0.3078 0.132968 2.20627 101 111 112 
0.0984202 -0.129745 1.85471 81 67 58 
0.309198 0.147425 2.1829 192 189 154 
0.300645 -0.0934663 2.33452 47 53 53 
-0.0194227 -0.421549 2.0876 201 174 131 
-0.0981688 -0.40832 2.11666 46 45 50 
-0.131385 -0.391446 2.12006 92 83 86 
-0.0957872 -0.384059 2.07522 59 50 51 
0.294245 -0.0966339 2.28211 170 163 135 
0.294008 -0.0121742 2.21326 145 131 94 
0.875297 0.968501 3.84851 248 247 252 
0.322502 0.133095 2.25694 146 146 122 
0.301675 -0.028269 2.25027 190 182 161 
0.0265585 -0.152696 1.88135 134 118 95 
-0.151258 -0.391658 2.14432 48 40 38 
-0.079043 -0.434325 2.15604 201 192 149 
0.190127 -0.249585 2.16926 160 147 115 
0.319547 0.146621 2.2127 62 68 64 
-0.0886763 0.0714446 1.80849 184 172 148 
-0.0655007 -0.436642 2.15301 57 71 45 
-0.145401 -0.401595 2.16238 30 21 38 
-0.19967 -0.0498415 1.88561 76 67 62 
0.286276 0.00273477 2.19602 180 154 117 
0.278843 -0.00173993 2.24155 177 159 119 
-0.222897 -0.0670911 1.97745 209 202 183 
-0.210982 -0.040545 1.90736 135 123 111 
-0.0976875 0.0758423 1.82402 204 201 182 
0.0714927 0.0812266 1.88535 170 162 143 
0.29853 0.135477 2.17712 48 57 62 
0.277942 0.324151 2.15443 74 75 70 
0.0697317 -0.0197456 1.85117 98 98 98 
0.22036 -0.0562801 2.05587 74 70 67 
-0.106443 -0.147171 1.87283 147 142 120 
0.0537411 0.0243384 1.81341 191 189 174 
-0.1333 -0.0372436 1.87096 138 126 110 
0.198877 -0.223323 2.15526 49 49 41 
0.299925 0.138414 2.2534 48 56 58 
-0.0990634 -0.0502664 1.84176 90 86 75 
0.28656 -0.0458586 2.23407 60 60 58 
0.24451 -0.182276 2.33173 109 101 64 
0.223124 -0.058725 2.11785 167 177 168 
0.154474 -0.0550978 1.90822 101 93 74 
0.26007 0.030726 2.14346 58 57 55 
-0.0924047 -0.116307 1.87894 106 95 73 
-0.0411236 -0.187977 1.88369 90 76 73 
0.0619568 -0.162442 1.87249 150 133 113 
-0.112594 -0.0508369 1.86667 205 198 188 
0.124866 -0.15642 1.93064 85 70 47 
0.059818 -0.176451 1.93356 98 84 73 
-0.0143894 0.236858 1.7654 210 212 209 
-0.0466279 -0.131817 1.86377 112 104 91 
0.0157304 -0.114857 1.86868 74 65 50 
0.0258525 -0.153919 1.88518 118 97 80 
0.138922 -0.123696 1.88573 217 208 193 
-0.0353286 0.25349 1.83463 82 81 89 
-0.0443465 -0.130324 1.85163 99 92 76 
-0.0228762 0.163771 1.74316 213 203 193 
0.15789 -0.103219 1.95522 73 61 49 
0.1775 -0.0861361 1.96042 163 150 131 
0.0292246 -0.150932 1.86998 134 118 95 
0.15722 -0.0943154 1.91184 200 186 159 
0.164254 -0.0860509 1.93092 126 104 83 
0.0172697 -0.113471 1.87187 101 85 72 
-0.0184883 0.159702 1.72834 176 166 154 
-0.0902311 0.166829 1.79491 250 243 227 
0.206097 -0.0283412 1.91799 181 169 145 
0.0502744 0.0325397 1.86188 166 167 153 
-0.0979835 0.170902 1.82101 245 238 220 
-0.10598 -0.0517994 1.83516 119 104 99 
-0.086204 0.0562055 1.80185 109 97 85 
-0.050959 0.0549386 1.72994 72 58 47 
0.0763122 0.0790673 1.85662 170 162 143 
0.0308454 -0.108897 1.82251 100 84 69 
0.0505357 0.0193623 1.76801 226 219 203 
-0.0757896 0.0930172 1.78678 102 92 93 
-0.081752 -0.120282 1.876 168 154 145 
0.154732 -0.106959 1.81956 69 54 59 
0.0408187 -0.135058 1.91902 201 192 177 
-0.137031 -0.157259 1.88768 255 245 236 
-0.0667234 -0.35552 1.97796 77 57 46 
0.0146213 -0.391712 2.13909 98 62 40 
0.244943 -0.18352 2.35678 191 171 146 
0.172114 -0.0792084 1.9635 144 125 111 
-0.0501027 -0.410478 2.11332 31 21 19 
-0.118041 -0.0519275 1.87984 235 224 220 
-0.217901 -0.0663252 1.93584 118 102 112 
0.296208 -0.000718269 2.24491 64 60 59 
-0.0430001 -0.416079 2.10144 184 163 132 
-0.0925993 0.162812 1.74982 69 54 51 
-0.0174942 -0.402153 2.09631 30 25 32 
-0.158482 -0.0408479 1.87879 63 62 67 
-0.129538 -0.383883 2.10324 26 22 19 
-0.181563 -0.070674 1.89872 209 191 167 
0.0624853 -0.0217899 1.90228 78 77 91 
-0.142131 -0.391175 2.13093 30 30 32 
-0.0638583 0.0578848 1.7635 51 32 28 
-0.0428853 0.148002 1.75632 17 14 21 
-0.0246958 0.246289 1.80246 135 138 153 
0.0747096 0.0818658 1.81468 180 165 146 
0.0305477 0.0323313 1.77823 120 103 96 
0.0280032 0.0329541 1.78656 108 90 78 
0.603348 0.660594 3.4083 50 50 62 
0.155404 -0.298959 2.17959 223 211 189 
0.383278 0.234185 2.42671 174 190 179 
-0.123928 -0.407116 2.14657 58 52 54 
-0.0292104 -0.38324 2.08887 58 45 37 
0.37315 0.232962 2.42945 163 169 165 
0.371682 0.219927 2.43822 168 157 151 
-0.0217826 -0.397926 2.10249 187 148 115 
0.278472 0.163539 2.12495 176 165 143 
0.284902 0.163232 2.15248 155 138 118 
0.117954 -0.153385 1.93286 239 238 217 
0.243252 -0.187382 2.39217 214 196 158 
0.276067 0.149348 2.15623 187 179 160 
0.201638 0.300198 1.96327 194 186 173 
0.161386 -0.286505 2.16882 60 38 27 
0.267721 0.117236 2.14555 184 166 142 
0.332857 0.108381 2.35031 191 197 187 
0.169398 -0.0826067 1.97245 53 48 44 
-0.145316 -0.426769 2.17154 171 180 189 
0.216188 0.0681124 1.99959 250 242 221 
0.251389 0.0586299 2.15062 201 201 191 
-0.0343958 -0.391801 2.09111 209 187 163 
0.111043 -0.149389 1.9272 239 233 207 
0.173922 -0.259417 2.16335 186 189 172 
0.29638 0.307369 2.17421 195 181 155 
0.190671 -0.212967 2.12725 194 182 158 
0.237223 0.0181214 2.14272 210 204 192 
0.27409 -0.0121598 2.27189 210 196 167 
0.144396 -0.102105 1.92631 202 198 187 
0.264098 -0.152872 2.37931 62 58 46 
-0.121955 -0.0512227 1.8904 195 185 175 
0.351558 0.110035 2.47861 39 32 39 
0.231028 -0.0400043 2.19682 200 205 185 
0.246289 -0.0583291 2.29045 33 37 38 
0.273013 -0.0593735 2.30344 36 32 33 
0.2017 -0.123957 2.06914 64 55 40 
-0.00825208 -0.407098 2.12287 242 228 199 
0.244562 -0.137959 2.3635 185 180 150 
0.153401 -0.095081 1.94598 192 189 172 
-0.0265978 -0.433998 2.12226 202 167 125 
0.223046 -0.140306 2.30229 154 157 146 
0.229375 -0.18688 2.36266 148 141 125 
0.343871 0.226327 2.30789 184 170 159 
0.296877 0.324829 2.13739 203 195 182 
0.28353 -0.0897622 2.34374 38 28 16 
0.350646 0.220894 2.32915 198 183 162 
0.279834 0.318812 2.07558 65 58 48 
0.289389 -0.0494321 2.29862 207 217 209 
0.661958 0.618191 3.36005 43 60 90 
0.609884 0.633679 3.41209 49 66 84 
0.0988139 -0.155087 1.97469 241 229 215 
0.157873 -0.293136 2.19258 45 39 41 
0.291094 0.252451 2.15176 175 163 147 
0.249489 0.0594328 2.07609 38 27 31 
-0.206718 -0.0716309 1.93878 89 78 82 
0.222707 -0.0169833 2.07904 127 137 126 
0.202835 -0.122915 2.05336 124 106 86 
0.00224571 -0.413148 2.1455 211 204 188 
0.290173 0.0124208 2.28817 201 181 154 
0.378202 0.214048 2.41682 154 168 151 
-0.0421927 -0.389745 2.09707 209 179 145 
0.287452 0.156556 2.17018 176 162 135 
0.361288 0.155874 2.44021 157 155 160 
0.266246 0.118025 2.16044 183 168 137 
0.064601 0.085654 1.85515 176 166 156 
0.159258 -0.103263 1.95084 66 51 48 
0.239114 -0.197008 2.43478 33 38 41 
0.353428 0.123804 2.39546 182 181 186 
0.281444 0.0154811 2.25417 49 38 34 
0.252692 0.0572464 2.12389 161 166 169 
0.275307 -0.159992 2.3965 44 48 59 
0.289156 -0.0759885 2.33906 176 159 139 
0.291113 0.23865 2.14897 162 156 132 
-0.0321173 -0.438414 2.14118 183 158 127 
-0.0688049 -0.404969 2.11766 217 195 158 
-0.134931 -0.420995 2.16822 10 1 20 
-0.0495831 -0.38483 2.08797 57 45 55 
0.336957 0.112526 2.39287 146 134 118 
0.309313 0.141414 2.27814 136 143 149 
0.276476 0.0759155 2.23159 208 204 177 
0.613315 0.643793 3.44946 49 66 84 
0.759086 0.628347 3.30688 190 202 202 
0.251333 0.0583224 2.139 161 166 169 
0.290754 0.144669 2.1658 136 133 128 
0.123659 -0.160974 1.95793 71 65 51 
0.281765 -0.0426118 2.29343 180 175 155 
0.177059 -0.04507 1.96515 171 170 152 
0.163976 -0.0531486 1.96357 225 218 200 
0.225334 -0.0635173 2.19028 98 100 86 
0.00909696 -0.116867 1.8946 73 60 54 
0.240258 -0.138787 2.38495 152 151 133 
-0.0492657 -0.413641 2.12649 200 171 141 
-0.0966904 -0.407299 2.11906 172 153 136 
-0.17297 -0.435577 2.22068 222 224 223 
-0.0553322 -0.391051 2.10804 60 51 56 
0.305316 0.302762 2.15125 54 49 53 
0.156375 -0.296536 2.1681 221 212 197 
-0.0719005 -0.379995 2.07368 111 88 82 
0.290216 0.00780474 2.27413 181 156 125 
0.312414 0.298859 2.1605 200 193 185 
0.239273 -0.190963 2.42583 214 196 158 
0.61238 0.648427 3.47622 141 150 147 
0.21278 -0.000646742 2.02928 187 181 159 
0.243124 -0.135415 2.34443 129 130 116 
0.165734 -0.0558029 1.98146 205 192 173 
-0.24287 -0.412875 2.25834 43 42 58 
0.323137 0.138781 2.3442 181 184 167 
0.250945 0.059087 2.16128 201 201 191 
-0.0203935 -0.384345 2.09623 116 94 80 
0.303851 -0.0298075 2.28888 199 186 167 
0.272958 -0.15998 2.4092 47 51 60 
-0.079876 -0.401753 2.13562 40 37 46 
-0.198804 -0.380707 2.1419 48 47 55 
0.226746 -0.0625441 2.17734 160 160 134 
0.153877 -0.297272 2.15841 176 165 145 
0.613314 0.657764 3.50205 46 63 71 
-0.226568 -0.0511757 1.94995 68 59 60 
0.30406 0.144388 2.26182 30 34 46 
0.285275 0.0357502 2.25498 125 108 90 
0.240255 -0.19008 2.40881 180 167 133 
-0.0359347 -0.382947 2.10742 245 238 212 
0.302209 -0.0298847 2.27405 152 148 121 
-0.0158414 -0.40104 2.09163 40 38 43 
-0.0455481 -0.398569 2.10022 39 33 43 
0.146914 -0.307515 2.20057 179 158 137 
0.278667 0.013456 2.30248 53 47 49 
0.30395 -0.0533874 2.37699 33 42 41 
0.201362 -0.0584913 2.0106 165 145 134 
0.236375 -0.0776179 2.34304 112 112 100 
-0.0768698 0.165333 1.73633 226 218 197 
0.158941 -0.0878167 1.98367 164 144 120 
0.159523 -0.0464563 1.98702 67 62 59 
0.299758 -0.0338224 2.31052 120 124 97 
-0.236694 -0.052593 1.97073 71 63 61 
0.29024 -0.0241696 2.30458 197 185 169 
0.209243 -0.0018334 2.05364 147 142 123 
-0.111125 0.177994 1.80108 216 203 187 
0.345408 0.117024 2.37122 47 46 52 
0.289961 -0.0491782 2.31884 153 150 117 
0.308936 -0.0189086 2.3858 90 90 82 
0.244375 -0.0781741 2.25292 79 80 74 
0.641277 0.620967 3.49027 68 76 79 
0.181006 -0.237548 2.22895 48 44 33 
-0.0637956 -0.0535251 1.81089 78 75 70 
-0.0723818 -0.0490628 1.79669 83 75 73 
0.225112 -0.00600884 2.06285 39 39 47 
0.275099 -0.000434561 2.29247 231 215 181 
0.101037 0.0615733 1.78408 84 70 61 
-0.0431639 0.117127 1.74641 197 185 173 
-0.000553923 0.129779 1.64085 78 59 52 
0.309208 -0.0470745 2.32107 51 52 54 
0.149878 -0.302301 2.22202 51 43 41 
0.304697 -0.00512922 2.28377 46 47 52 
0.180261 0.281818 1.86475 229 204 197 
-0.208585 -0.120798 1.94831 85 66 59 
0.166071 -0.0515268 1.94599 235 226 211 
0.28134 -0.0473295 2.26156 131 125 101 
-0.245789 0.299077 1.88213 78 54 44 
0.196601 0.263867 1.9373 168 161 155 
-0.232132 -0.0527043 1.95551 241 226 221 
0.291235 -0.0206475 2.23329 213 197 184 
0.244379 -0.132544 2.30023 158 155 136 
-0.141939 -0.407935 2.16057 189 169 136 
0.113788 -0.14558 1.8924 214 208 192 
0.296651 0.0115573 2.23971 127 109 87 
0.257178 -0.162955 2.30306 79 61 59 
-0.0323254 -0.389546 2.08165 161 141 114 
0.477389 0.465225 2.58944 245 255 255 
0.26078 -0.148541 2.33503 125 110 87 
-0.267589 0.269108 1.90247 74 54 53 
0.170339 -0.091491 1.93539 90 75 68 
0.292348 0.229139 2.11805 184 176 155 
-0.0621393 -0.429186 2.13262 44 49 26 
-0.0388077 -0.409953 2.08271 180 159 132 
-0.0301446 -0.378043 2.05713 108 83 61 
0.211828 0.0845123 1.05886 49 41 52 
0.237631 0.0136961 2.06145 182 175 157 
-0.18085 -0.0876887 1.86022 178 169 154 
0.304798 -0.0480854 2.27915 29 33 36 
0.047722 -0.0267199 1.88548 216 207 200 
0.047407 -0.118628 1.8539 177 157 159 
0.0670114 -0.0227931 1.8821 67 67 79 
0.066154 0.0218014 1.86373 165 156 149 
-0.0944006 0.170911 1.76109 225 213 199 
0.173914 -0.258568 2.13907 74 66 55 
0.102994 0.117257 1.08846 120 95 73 
0.154207 -0.112415 1.95091 80 72 61 
-0.137296 -0.418618 2.18935 78 65 59 
0.158248 -0.0527724 1.9406 215 203 187 
0.166457 -0.0955273 1.96195 229 226 217 
0.24559 -0.137438 2.35463 173 170 135 
0.300558 0.152593 2.24827 169 171 149 
0.240717 -0.193251 2.41046 40 38 39 
0.0631934 -0.173758 1.91464 98 84 73 
0.253205 -0.179643 2.40204 56 46 47 
0.224973 -0.191275 2.409 134 140 130 
0.224112 -0.139039 2.27962 190 196 182 
0.291339 -0.0206612 2.27714 213 199 172 
-0.178184 -0.439867 2.23817 212 225 216 
0.25772 -0.152514 2.39213 198 194 165 
-0.00632187 0.232803 1.74398 229 229 221 
0.216822 0.040205 1.98871 181 180 150 
0.323311 0.138414 2.34959 178 181 174 
0.2246 -0.0610548 2.15832 152 157 134 
0.318469 0.143762 2.25346 180 177 146 
0.230397 0.00604468 2.10626 204 212 199 
0.279203 -0.0432858 2.33043 182 180 165 
0.0823895 -0.140789 1.9563 81 67 58 
0.172164 -0.052807 1.94549 208 206 185 
-0.220115 -0.393531 2.19437 63 60 67 
0.323535 0.135995 2.33181 74 79 83 
0.333565 0.105279 2.4211 48 61 69 
0.247299 -0.0264049 2.21098 182 182 156 
-0.381631 0.243153 2.04544 94 77 67 
-0.0700016 -0.406065 2.12239 211 198 153 
-0.0939059 -0.433807 2.19433 77 74 65 
-0.214368 -0.0748947 1.95534 85 76 71 
0.269189 -0.00942864 2.2659 79 79 67 
0.302945 -0.0535552 2.32899 55 57 56 
0.20237 -0.0584962 2.00401 154 150 115 
0.239602 0.0134993 2.11933 182 182 156 
0.259067 -0.163289 2.30833 83 79 67 
-0.163457 -0.404342 2.18359 48 40 38 
-0.130915 -0.435983 2.19626 49 46 55 
-0.049082 -0.384944 2.08793 57 53 52 
0.254478 -0.157465 2.38176 147 143 114 
-0.15681 -0.358816 2.05082 117 117 127 
-0.0902299 -0.440454 2.18706 197 190 161 
-0.0045541 -0.363489 2.02067 129 117 91 
0.28272 0.0132611 2.22309 85 75 65 
0.178388 -0.258607 2.17344 49 50 44 
0.311696 -0.0188193 2.31985 98 94 85 
0.222221 -0.0211307 2.0678 107 118 104 
0.241691 -0.07617 2.30571 154 152 131 
-0.0825543 -0.406724 2.13169 61 55 57 
-0.0524129 -0.395903 2.06768 180 161 119 
0.179271 -0.039971 1.93929 109 100 85 
0.290083 -0.0465887 2.37444 188 186 163 
0.186656 -0.262933 2.25747 169 169 141 
0.299051 0.223637 2.15471 126 124 101 
0.0936181 0.0646989 1.82134 100 87 79 
-0.164114 -0.0397422 1.9556 138 126 110 
-0.234899 -0.424024 2.23931 37 38 40 
0.0385577 0.0302887 1.74772 116 105 101 
0.0696199 0.0336006 1.81946 93 78 71 
-0.101531 0.161875 1.8085 125 105 80 
0.183434 -0.0365649 1.88606 105 100 81 
0.332913 0.107591 2.39544 168 179 175 
0.136049 -0.109524 2.08579 107 96 74 
0.0391084 -0.0540172 1.83949 181 168 149 
0.302298 -0.092674 2.32571 39 42 49 
0.0914229 -0.136649 1.91911 72 53 46 
0.0993072 0.278817 1.73681 242 235 243 
-0.0158969 -0.373451 2.06826 111 97 96 
-0.0134482 -0.372155 2.05084 130 111 104 
-0.10442 0.059132 1.84348 44 25 19 
0.0336071 0.276849 1.70612 196 197 199 
0.305198 0.148096 2.25562 34 42 53 
0.289421 -0.0831957 2.32397 194 178 153 
0.2909 -0.0131911 2.26356 202 192 167 
0.217174 0.019817 1.98612 70 63 55 
0.215746 0.0251345 2.00759 222 220 205 
0.268663 0.114204 2.12204 173 156 130 
0.28812 0.155191 2.15599 231 219 195 
0.376076 0.2246 2.41932 176 174 153 
0.275961 0.316836 2.05627 214 206 183 
0.117078 0.141697 1.18335 246 240 244 
0.246047 -0.00376313 2.15908 190 191 173 
0.273433 -0.0578644 2.28259 19 15 14 
0.237073 -0.0381102 2.20038 157 160 139 
0.236191 -0.182569 2.3869 54 55 49 
0.675488 0.561761 3.03597 210 217 227 
0.303083 -0.0386328 2.32115 77 67 57 
0.000901154 -0.417902 2.15092 94 91 84 
0.288586 -0.0750387 2.31739 179 162 144 
0.324263 0.134784 2.31007 138 150 128 
0.301625 0.306472 2.14043 177 169 150 
-0.161964 -0.0463416 1.91641 180 176 167 
0.282645 0.0134302 2.25949 67 60 52 
0.259652 0.0106676 2.17022 47 50 55 
-0.168448 -0.425962 2.21041 188 193 197 
-0.167286 -0.407373 2.1937 58 45 39 
0.175752 -0.0335909 1.96011 176 174 159 
-0.218561 -0.385989 2.17251 127 155 179 
-0.0554504 -0.398181 2.07728 170 150 115 
0.323643 0.155059 2.26126 56 55 63 
-0.0968436 0.14969 1.78824 108 79 61 
-0.0875349 0.168389 1.74489 209 196 179 
-0.0867147 0.213441 1.77049 197 177 153 
-0.115827 0.205854 1.79282 134 117 97 
0.142947 -0.106729 2.04705 100 87 71 
0.588279 0.596918 3.25688 54 57 64 
0.611584 0.633515 3.40784 20 43 74 
0.679867 0.674554 3.49808 51 81 105 
0.153234 -0.103383 1.95477 215 200 193 
0.652061 0.640283 3.3391 77 75 78 
